# .PCD v0.7 - Point Cloud Data file format
VERSION 0.7
FIELDS x y z intensity
SIZE 4 4 4 4
TYPE F F F F
COUNT 1 1 1 1
WIDTH 1394
HEIGHT 1
VIEWPOINT 0 0 0 1 0 0 0
POINTS 1394
DATA ascii
16.948748 14.040411 7.7009692 0
4.1237216 3.4160936 -0.60341537 0
22.282688 18.514227 0.26148567 0
21.387403 17.815466 6.1771832 0
22.207678 18.539198 0.26145071 0
21.35738 17.870459 6.1821194 0
22.602449 18.955116 0.94602513 0
4.5885444 3.8563211 -0.56386173 0
21.812614 18.375525 1.5915965 0
21.367245 18.046249 6.8869247 0
21.522621 18.211124 2.2317526 0
5.2583046 4.456624 -0.52946711 0
21.517591 18.281128 2.2366741 0
5.2532964 4.4766221 -0.52948987 0
20.887714 17.83153 2.8221154 0
6.8327594 5.8472052 -0.56586707 0
38.51141 33.022221 6.1718645 0
10.076659 8.6583824 -0.65869164 0
16.629002 14.316017 3.8706291 0
14.560116 12.565188 -0.62761915 0
16.523966 14.286544 4.3806524 0
16.678469 14.461619 8.8804741 0
16.633846 14.447223 4.9504843 0
22.282278 19.38999 0.94551027 0
16.643816 14.522238 4.960402 0
16.353489 14.307004 9.3406162 0
5.1732769 4.5265903 -0.52955317 0
21.372461 18.765345 1.5861202 0
4.4835086 3.9462795 -0.563972 0
16.553297 14.607919 10.090301 0
5.1282744 4.5315785 -0.52456295 0
20.612545 18.261433 2.8316102 0
17.613129 15.635572 7.6092544 0
3.838732 3.410881 -0.69343674 0
16.713343 14.89611 8.4099941 0
16.298811 14.547046 4.9103413 0
16.198414 14.491943 9.340395 0
5.1132545 4.5815668 -0.52962005 0
16.488955 14.804246 2.330071 0
9.8865671 8.8933077 -0.65897143 0
3.8237202 3.4408751 -0.69347155 0
14.49491 13.090145 -0.64321041 0
4.0586228 3.6710455 -0.62370563 0
15.793494 14.331594 9.1705351 0
5.1082335 4.6365647 -0.5296818 0
16.178988 14.724095 2.3051307 0
17.318066 15.800422 7.5790429 0
15.768928 14.401146 4.290453 0
16.583168 15.186766 9.0446568 0
5.0882215 4.6665568 -0.52971721 0
16.17893 14.864106 2.3149745 0
14.354863 13.21009 -0.64335728 0
15.668911 14.446095 4.2803936 0
15.733409 14.536614 9.2103014 0
16.623362 15.378605 6.1944461 0
16.183826 15.004693 2.839819 0
15.828496 14.709819 7.5651169 0
15.813751 14.711793 4.8551116 0
15.768284 14.697352 9.8601265 0
14.898951 13.907826 6.1059213 0
15.493945 14.485436 3.7503324 0
15.528464 14.55082 8.5702658 0
4.3534536 4.0862284 -0.56414032 0
15.744006 14.803333 1.7750008 0
6.2977228 5.9320331 -0.53101242 0
16.173672 15.265303 3.3895278 0
14.873783 14.074019 7.1857343 0
16.038553 15.191998 4.9595981 0
15.818145 15.0225 9.9747686 0
14.818873 14.097822 6.130702 0
16.393528 15.61545 3.4441586 0
14.84874 14.179026 7.2006149 0
3.938587 3.7610035 -0.61881733 0
16.243753 15.558018 1.314207 0
16.353235 15.698504 6.1990643 0
15.868727 15.259563 2.8345048 0
14.763721 14.228981 7.1905513 0
17.627789 17.008194 5.4677253 0
15.278266 14.777009 9.7249908 0
6.3726315 6.1670403 -0.55126715 0
15.363825 14.904856 3.2748525 0
14.698693 14.298955 7.1904674 0
3.9235656 3.8159921 -0.62388003 0
15.468182 15.096599 9.2896519 0
15.863373 15.512553 5.5192246 0
15.383903 15.068186 1.7696714 0
14.158969 13.897367 5.9558625 0
15.848495 15.585758 3.9141402 0
14.898426 14.680416 8.4300613 0
4.293395 4.2361989 -0.56931317 0
15.038231 14.876863 9.6798563 0
6.2876081 6.2270064 -0.55134201 0
15.133781 15.019748 3.2597024 0
16.087894 16.005989 8.5236979 0
15.278551 15.221576 4.8494925 0
15.188161 15.161416 9.2245531 0
6.2775912 6.271997 -0.55639315 0
15.17371 15.194792 3.2845113 0
13.949553 13.999918 -0.65427589 0
3.8785348 3.8959687 -0.62897336 0
15.203094 15.321483 9.279377 0
16.033045 16.178406 6.2234993 0
14.663911 14.823937 2.6998758 0
14.178679 14.363628 7.0803456 0
15.038588 15.260869 4.2994256 0
15.063099 15.316378 9.2343693 0
16.527819 16.838188 5.8528109 0
14.768903 15.072909 1.7396078 0
9.3063231 9.5130787 -0.65971708 0
3.6885905 3.7757938 -0.71885765 0
15.502891 15.916222 8.9387426 0
16.762653 17.233397 5.9573927 0
14.648898 15.087856 1.7345798 0
16.112749 16.624842 7.4830098 0
15.063465 15.560928 4.3440938 0
14.444043 14.956678 0.74970591 0
15.912908 16.513409 6.2681146 0
15.048582 15.634201 2.7990096 0
14.103546 14.683665 7.1399817 0
15.67309 16.336983 5.0732875 0
14.673102 15.336101 9.1243095 0
16.212715 16.968676 6.4026356 0
14.963563 15.684162 2.7939458 0
13.634427 14.319794 -0.65466225 0
15.083339 15.870986 4.3887501 0
14.603867 15.401752 0.75922513 0
16.207705 17.128056 5.8474574 0
14.528781 15.38282 1.7442397 0
16.637369 17.654751 7.2169118 0
14.563559 15.465074 3.7541525 0
13.83918 14.7259 0.2649053 0
16.162663 17.233049 5.8573356 0
14.278831 15.2577 1.7243553 0
15.59778 16.703892 6.8128729 0
14.413567 15.449992 3.7341552 0
13.988354 15.029283 7.7345862 0
16.41748 17.663282 5.976881 0
14.408722 15.532773 1.7440612 0
8.2515516 8.9127522 -0.57914829 0
3.6285324 3.9257586 -0.72903049 0
13.669145 14.815833 0.26478896 0
4.1382957 4.4911208 -0.58461189 0
14.138825 15.392104 1.239192 0
5.9624996 6.5018783 -0.55167925 0
14.388508 15.714453 3.2588577 0
16.467934 18.021305 -0.30351743 0
4.128284 4.5211172 -0.58464634 0
14.09379 15.482086 1.2390875 0
7.9066334 8.697649 -0.54894137 0
3.6085148 3.9707451 -0.73408246 0
15.343308 16.936493 0.26258489 0
17.306862 19.139078 6.3753209 0
15.982846 17.708605 1.9317863 0
15.732405 17.469818 7.5970325 0
16.442343 18.277082 4.8911986 0
14.367875 16.020466 8.663518 0
14.283171 15.942314 5.8635955 0
15.767777 17.619736 3.0218656 0
14.577848 16.329432 7.6581936 0
16.117373 18.07753 5.4063902 0
13.828769 15.536976 1.2340012 0
14.507955 16.333143 6.528182 0
15.417772 17.380774 4.0770993 0
14.688444 16.591232 0.26290745 0
14.248148 16.121738 5.3583918 0
27.037628 30.659285 3.1084058 0
12.974262 14.734538 -0.65018702 0
3.7084098 4.2158847 -0.64434612 0
14.36267 16.37624 9.3581219 0
14.592818 16.658272 6.6128278 0
15.027959 17.184336 2.9272804 0
15.008261 17.18577 -0.26772496 0
16.077221 18.447575 5.4609742 0
13.843619 15.911998 1.2485847 0
14.622739 16.848333 6.657619 0
14.303191 16.499502 3.3329749 0
15.02319 17.36577 -0.27292415 0
15.982198 18.507532 5.4558988 0
13.773589 15.98697 1.2484945 0
5.6724629 6.5917807 -0.53680694 0
16.017357 18.659954 3.1307302 0
14.908177 17.395729 -0.26796845 0
3.6633847 4.2808614 -0.64942276 0
13.987671 16.395985 9.2630634 0
14.067889 16.507921 6.4829454 0
14.552944 17.104694 3.4173243 0
14.793167 17.420685 -0.26800713 0
3.9882114 4.7060561 -0.58986568 0
14.287393 16.897051 10.112535 0
7.3966084 8.7574711 -0.52905643 0
3.5184381 4.1706872 -0.75431383 0
14.787209 17.576262 9.2268248 0
14.642549 17.432856 6.2219691 0
14.70782 17.534216 2.9318602 0
14.573174 17.400602 -0.26300564 0
3.9781921 4.7560468 -0.5949223 0
13.927486 16.701719 9.9427185 0
7.3415861 8.8124495 -0.52912283 0
3.5034208 4.2156758 -0.75936532 0
13.477801 16.244938 8.5031834 0
4.2330432 5.1112528 -0.50029385 0
13.75324 16.628111 2.2777789 0
12.67902 15.354405 -0.66590571 0
3.5783629 4.3358278 -0.64949203 0
13.622608 16.56579 9.2178402 0
14.292565 17.407646 6.1569638 0
15.107454 18.4345 3.0458951 0
12.668967 15.489395 -0.67105711 0
15.956885 19.551352 4.4047322 0
13.67762 16.794617 8.1425896 0
15.621911 19.217466 5.5250731 0
14.202986 17.502213 1.3118469 0
5.5223751 6.81671 -0.54707181 0
15.017446 18.588846 2.4907141 0
7.1265764 8.8373699 -0.52417111 0
13.792934 17.144323 3.3522079 0
12.478945 15.544327 -0.66613638 0
15.566938 19.431135 4.3498292 0
12.373968 15.48429 -0.66107941 0
13.742896 17.239315 3.3620973 0
7.0715542 8.8923483 -0.52423751 0
15.002262 18.914499 3.0803502 0
13.517655 17.092735 6.5122418 0
26.741249 33.875462 4.2697949 0
13.412681 17.037655 6.477293 0
13.56303 17.272499 1.7970424 0
4.1329813 5.2712021 -0.5104816 0
13.722178 17.571226 9.5717297 0
3.4733181 4.4507804 -0.65463018 0
13.663103 17.580256 -0.25329223 0
13.517817 17.439226 3.3618531 0
5.3373394 6.9066429 -0.5421896 0
13.827812 17.942068 1.3163211 0
3.4033394 4.4256196 -0.77460873 0
5.2873406 6.9016285 -0.53718877 0
26.241329 34.3969 1.2491646 0
14.572006 19.151239 4.7950468 0
5.2373385 6.9066091 -0.53719902 0
29.639425 39.198391 1.379137 0
13.277746 17.619131 3.36163 0
4.0479345 5.3911629 -0.51562333 0
29.759317 39.742165 0.23854184 0
13.337643 17.874193 3.3963516 0
4.0279245 5.4161549 -0.51565313 0
26.995541 36.387245 1.2920183 0
13.217644 17.874134 3.3863401 0
3.6781015 4.9859281 -0.59520698 0
29.624187 40.345818 -0.92214429 0
3.7728975 5.1525979 0.86961734 0
3.37325 4.62573 -0.66483462 0
3.8129454 5.2466106 -0.030484259 0
3.7529137 5.182261 0.5745821 0
3.7528772 5.2025952 0.87455964 0
3.6230803 5.0409007 -0.60027337 0
3.7229803 5.1914191 -0.17043138 0
3.7329242 5.2269187 0.27453029 0
3.7178938 5.2322474 0.57452309 0
3.7228677 5.2624168 0.72449005 0
3.2932453 4.670548 -0.79989231 0
3.5730627 5.0858812 -0.60032833 0
6.4614182 9.237112 -0.51967967 0
28.738724 41.246761 0.23676842 0
3.697854 5.3322449 0.57940978 0
3.2582278 4.715529 -0.80494571 0
3.5330448 5.1308651 -0.60038221 0
6.3464136 9.2470732 -0.5147016 0
28.5634 41.788002 1.4111494 0
28.448378 41.842957 1.4110771 0
28.113598 41.566517 0.23635279 0
28.038252 41.605396 3.7463045 0
28.30279 42.193195 6.1656761 0
3.2581539 4.8756566 -0.69012392 0
3.8427863 5.7710595 -0.53606617 0
4.6872697 7.0764141 -0.51744044 0
4.6622696 7.0764041 -0.51744282 0
3.8177669 5.821044 -0.54112422 0
10.088976 15.448462 -0.59625638 0
26.853289 41.251133 4.8265877 0
3.218123 4.9556351 -0.69521689 0
6.1063347 9.4469776 -0.51494718 0
26.818562 41.656006 0.23613013 0
26.962971 42.041256 4.8957176 0
3.2031035 5.0056238 -0.70027411 0
6.0363231 9.4769506 -0.51498723 0
26.508509 41.790882 0.23595041 0
26.902641 42.582588 6.1151094 0
3.0681653 4.8754482 -0.81014192 0
3.1730804 5.0656061 -0.70534372 0
4.4722323 7.1713295 -0.51756668 0
9.7238941 15.653317 -0.59651935 0
26.662981 43.130939 0.23447189 0
26.473017 43.040867 0.23455423 0
26.937197 43.966412 5.04357 0
3.008146 4.9254189 -0.81520331 0
4.412199 7.2563057 -0.51766706 0
26.267996 43.374477 -0.94083774 0
25.672878 42.559422 3.7100167 0
25.617615 42.667004 6.0448933 0
2.9581358 4.9504042 -0.81023586 0
2.9581285 4.9703989 -0.81525815 0
2.9381299 4.9653969 -0.81025445 0
2.9331243 4.9803891 -0.81527174 0
3.0880039 5.2655444 -0.73057461 0
26.581945 45.755909 0.23153928 0
5.6062322 9.7067804 -0.51528418 0
3.557621 6.195919 -0.56156659 0
3.0479748 5.3405237 -0.73566198 0
25.986877 45.925674 0.23129362 0
4.2270999 7.5112157 -0.53296864 0
3.1828258 5.6956825 -0.64104486 0
2.7981021 5.0353413 -0.81034577 0
9.01861 16.378029 -0.60739374 0
4.1720591 7.616188 -0.53809083 0
3.1577859 5.8006558 -0.65616417 0
2.7430863 5.0753193 -0.81039548 0
8.9185085 16.637978 -0.61769295 0
4.102026 7.7011547 -0.54319215 0
3.0827775 5.8206315 -0.65119362 0
2.9428792 5.5904484 -0.76595044 0
23.222115 44.483498 3.7426403 0
23.102118 44.483444 3.7376292 0
23.086924 44.684753 4.9224043 0
22.92695 44.619682 4.9124613 0
2.6230688 5.1202722 -0.81045699 0
2.8978388 5.6954198 -0.77607167 0
2.8928328 5.7104173 -0.77608883 0
3.0027239 5.9605832 -0.66635716 0
3.3174543 6.6257906 -0.59206843 0
21.423147 42.977634 -0.88085544 0
22.296944 44.923126 3.7370627 0
2.5780323 5.2152433 -0.82056713 0
3.8469818 7.81106 -0.53833878 0
8.403306 17.152761 -0.62831545 0
21.122904 43.323757 0.23373109 0
17.585257 36.232605 4.9412994 0
2.8277791 5.8503747 -0.79125106 0
2.9226789 6.0755458 -0.67149282 0
3.7769489 7.8960266 -0.5434401 0
8.2782164 17.382702 -0.63858354 0
8.2182226 17.367683 -0.63357246 0
20.617617 43.784813 1.35817 0
16.345808 34.881886 4.7376871 0
2.777741 5.9503384 -0.80636728 0
3.7368908 8.0459995 -0.55361104 0
20.34264 43.998451 0.23290524 0
15.616121 33.907436 5.4887042 0
2.7427292 5.9803247 -0.80640399 0
4.4961743 9.8463764 -0.48554507 0
20.027498 44.084579 1.35778 0
17.094442 37.789768 7.0545197 0
3.641875 8.0859623 -0.55366457 0
7.9380894 17.707561 -0.64397788 0
19.392546 43.436779 3.5584431 0
16.814415 37.859646 7.044415 0
2.7476246 6.215466 -0.6816653 0
4.3461623 9.876317 -0.48559263 0
15.87044 36.229771 3.0061388 0
2.6327076 6.0352812 -0.80647564 0
3.082273 7.0956526 -0.63261425 0
2.7125959 6.2904406 -0.6917522 0
3.0522633 7.1206408 -0.63264501 0
3.4768493 8.150897 -0.55375266 0
3.0272517 7.1506257 -0.63768089 0
17.012663 40.388638 15.04162 0
15.255388 36.364517 2.9959304 0
15.38 36.891693 4.9053559 0
2.2479525 5.4201021 -0.83082664 0
2.6525424 6.4303999 -0.70691395 0
2.5076745 6.1202264 -0.81158221 0
2.4926763 6.1152201 -0.81157804 0
2.1879539 5.4150839 -0.82582676 0
2.4626706 6.1302085 -0.81159759 0
2.16295 5.4250741 -0.82584035 0
2.4276726 6.1251945 -0.81159532 0
14.799527 37.613663 6.8794975 0
14.679543 37.578598 6.8645253 0
14.554465 37.768581 6.8893018 0
14.434582 37.707447 5.9143581 0
16.697342 43.960678 3.5226033 0
14.668289 38.976887 14.30297 0
16.64702 44.765713 3.5717015 0
11.75133 31.882858 11.725596 0
16.366947 44.950607 3.5764689 0
13.290317 36.767704 2.065294 0
11.276501 31.492472 11.545986 0
13.613952 38.356541 9.8785591 0
11.790741 33.676479 10.4736 0
11.82533 34.238731 12.477979 0
12.744918 37.334557 3.9196117 0
11.170566 33.290108 13.948975 0
12.559597 37.910583 4.9039531 0
11.085566 34.111259 10.523049 0
12.673596 39.684174 8.0869894 0
12.243974 39.002743 6.9527073 0
9.6963272 31.747711 12.320552 0
2.2071853 7.3601127 -0.80799222 0
11.394462 38.474094 3.9832137 0
4.2293596 14.43633 -0.43568477 0
2.2619975 7.8052788 -0.67848289 0
1.8325686 6.3899541 -0.81694674 0
10.659756 37.53471 4.7941914 0
4.1342382 14.746275 -0.45103917 0
2.2019475 7.9352384 -0.69363344 0
10.629251 38.794849 4.9327931 0
2.9208052 10.810719 -0.51675677 0
1.732543 6.4799027 -0.82704329 0
2.116926 8.0451908 -0.70373309 0
3.9041562 15.106154 -0.46637657 0
1.9371362 7.5749803 -0.82820749 0
2.0519013 8.1751509 -0.71384645 0
2.0069187 8.155138 -0.70881379 0
1.5775603 6.5498343 -0.83207035 0
2.1914446 9.4502869 -0.63517463 0
-1.6469694 5.9736371 -0.89638174 0
-2.2974434 8.1285162 -0.91328907 0
-2.3522713 8.1585703 -0.92305648 0
-2.3969805 8.1836958 -0.92758071 0
-2.4319701 8.1686907 -0.92755759 0
-2.4669561 8.13869 -0.922521 0
-2.5019457 8.1236839 -0.92249787 0
-2.541939 8.1236773 -0.92248869 0
-2.57693 8.1136723 -0.92247021 0
-3.3124545 10.273434 -0.98944664 0
-3.372448 10.283419 -0.99444485 0
-4.5432701 13.673062 -1.0775417 0
-4.6132588 13.67305 -1.0775266 0
-4.6782441 13.658039 -1.0774977 0
-4.7532349 13.668022 -1.0824918 0
-4.8232236 13.668011 -1.0824764 0
-4.8932114 13.667994 -1.0874612 0
-4.9632006 13.667984 -1.087446 0
-5.0331888 13.667968 -1.0924308 0
-2.1863246 5.888813 -0.91035295 0
-3.0268362 8.0485916 -0.937307 0
-3.8873367 10.193332 -1.0042425 0
-3.9323249 10.178327 -1.0042175 0
-5.343132 13.642917 -1.0973401 0
-22.663288 57.152504 -2.6366289 0
-2.6864936 6.7187076 -0.91606653 0
-3.2367854 7.9885635 -0.93720424 0
-4.1522727 10.118292 -1.0091136 0
-22.242685 53.621311 1.5817702 0
-4.2272563 10.103281 -1.0090834 0
-23.537704 55.637459 -2.584955 0
-2.8514562 6.6786828 -0.92099404 0
-4.3472261 10.063266 -1.0090201 0
-23.817339 54.532486 -2.5438159 0
-2.5462348 5.7737675 -0.91516662 0
-2.9614291 6.643671 -0.92093718 0
-4.5121861 10.013243 -1.0139368 0
-24.066793 52.802574 -2.4720662 0
-3.0414097 6.6186624 -0.92089713 0
-6.2329288 13.422784 -1.1119436 0
-6.2979121 13.397776 -1.1119072 0
-6.3628969 13.377769 -1.1118751 0
-3.1513813 6.5786471 -0.92583668 0
-24.741217 51.177586 -2.4153423 0
-2.7811782 5.7037401 -0.92005146 0
-4.847086 9.8432074 -1.0137058 0
-25.170979 50.567566 -2.3996682 0
-3.8866177 7.7534833 -0.94684565 0
-25.450857 50.297543 -2.3943484 0
-3.3263383 6.5186305 -0.92574537 0
-25.675707 49.887543 -2.3789072 0
-3.9915876 7.703474 -0.94677675 0
-25.875546 49.427551 -2.3634253 0
-6.9977746 13.282676 -1.1316634 0
-4.0715694 7.6784663 -0.94673896 0
-2.986119 5.6037254 -0.9199152 0
-4.1265564 7.6634574 -0.95171332 0
-3.026108 5.5837226 -0.91988897 0
-4.1765394 7.6284542 -0.95167077 0
-7.3177142 13.232633 -1.1415569 0
-25.95491 46.469814 0.23946686 0
-3.1110799 5.5287185 -0.91982067 0
-7.4876747 13.177613 -1.146475 0
-4.3365054 7.5884361 -0.95660448 0
-27.105034 47.050667 1.4991082 0
-3.6912389 6.3535995 -0.9305203 0
-27.610001 47.160599 1.5090849 0
-7.7076159 13.077595 -1.1463406 0
-5.6768923 9.5831127 -1.0333054 0
-3.766217 6.3135915 -0.93546939 0
-7.8525877 13.047577 -1.1512883 0
-3.2910285 5.4337087 -0.91969895 0
-3.8461978 6.283586 -0.93542755 0
-28.569641 46.3605 1.5050151 0
-4.6314282 7.4584117 -0.96143043 0
-5.9318242 9.4630947 -1.0331488 0
-3.9311731 6.2385821 -0.93536925 0
-8.1824903 12.857554 -1.1510524 0
-4.7414007 7.4134054 -0.96136904 0
-3.4509861 5.3586974 -0.92460191 0
-8.3074579 12.802544 -1.1559792 0
-4.0561481 6.2085657 -0.94532216 0
-30.539043 46.382175 -2.3497052 0
-6.1817551 9.3330765 -1.0379857 0
-3.5409613 5.3136902 -0.92954457 0
-8.5374012 12.707523 -1.1608537 0
-4.1361141 6.1235709 -0.94022763 0
-33.350174 49.018139 5.7682157 0
-31.453798 45.917107 -2.3541272 0
-8.7173662 12.662507 -1.1657842 0
-4.2010903 6.0685701 -0.940166 0
-32.35442 46.402138 4.1955571 0
-8.8923454 12.667483 -1.175764 0
-5.0762963 7.1933904 -0.96610928 0
-34.349861 48.338028 5.7690067 0
-5.1562872 7.1933794 -0.9710995 0
-32.993542 45.676949 -2.38868 0
-4.3510504 5.9885659 -0.94006908 0
-6.6466227 9.0630541 -1.0426627 0
-4.3960371 5.9585648 -0.9400357 0
-33.783386 45.451881 -2.39836 0
-4.4360242 5.928565 -0.94000185 0
-9.3872232 12.442451 -1.1854845 0
-4.4760108 5.8985653 -0.93996859 0
-6.821559 8.9080582 -1.0374957 0
-34.938183 45.251785 -2.4230356 0
-4.5409875 5.848567 -0.93991423 0
-35.558395 45.43877 0.24186569 0
-5.4861817 6.9633784 -0.9708426 0
-35.928299 45.27375 0.24205874 0
-5.5361652 6.9283786 -0.97080505 0
-36.362968 45.161659 -2.462796 0
-5.571147 6.8783827 -0.97075474 0
-36.727875 44.986645 -2.4675965 0
-5.6211314 6.8483829 -0.97072136 0
-37.207798 44.926613 -2.4774947 0
-4.7459192 5.6985683 -0.94475448 0
-10.072008 11.992446 -1.1899952 0
-5.7261 6.7783847 -0.97064769 0
-4.7908993 5.6435761 -0.93970025 0
-7.3514009 8.5880527 -1.0471452 0
-40.75367 47.286491 4.6057057 0
-7.4313841 8.5630465 -1.0521148 0
-39.552586 45.216377 -2.5575287 0
-4.9008636 5.5635767 -0.94461703 0
-10.396893 11.712458 -1.1897094 0
-4.2857261 4.8036947 -0.93898082 0
-26.259905 29.205175 -0.65417588 0
-7.6013212 8.4080563 -1.0519581 0
-4.9908323 5.4885817 -0.94454086 0
-40.582222 44.301411 -2.5566111 0
-5.0308199 5.4585843 -0.9445101 0
-40.792095 43.931438 -2.5512581 0
-6.0609808 6.488399 -0.97535384 0
-4.3956814 4.6837096 -0.93386328 0
-41.137337 43.539547 1.6341298 0
-7.8162465 8.2180691 -1.0517697 0
-5.1257834 5.3635926 -0.94441676 0
-41.622208 43.244545 1.6394299 0
-7.9012208 8.1580687 -1.0567093 0
-4.4806509 4.6037178 -0.93378496 0
-7.9612012 8.1080723 -1.0566603 0
-4.5106392 4.5687213 -0.93375194 0
-24.488884 24.64082 -0.54521251 0
-11.141659 11.15248 -1.1991457 0
-4.5606251 4.5387206 -0.9387213 0
-6.3658919 6.2784114 -0.98014355 0
-43.041771 42.159565 1.6454989 0
-8.1761389 7.9580803 -1.0615119 0
-43.311531 41.83857 0.24579921 0
-8.2311192 7.9030857 -1.0614595 0
-43.881203 41.786507 -2.5791242 0
-5.3956885 5.1086192 -0.94417131 0
-11.531534 10.822502 -1.2038298 0
-4.7005725 4.388742 -0.9335798 0
-6.5658202 6.0784287 -0.98495412 0
-11.646489 10.687516 -1.203704 0
-4.7555542 4.3387446 -0.93853307 0
-8.471036 7.6681099 -1.0612388 0
-45.635822 40.951519 -2.6132929 0
-5.5506349 4.9536376 -0.94402671 0
-11.826415 10.462541 -1.2034985 0
-5.5806208 4.9086428 -0.94398677 0
-8.6159849 7.5181265 -1.0611012 0
-46.66058 40.361546 -2.6277308 0
-5.6456008 4.8536468 -0.94893599 0
-11.97134 10.207575 -1.1982713 0
-4.9104962 4.158772 -0.93337011 0
-8.7459335 7.3531466 -1.0609535 0
-47.635338 39.731586 -2.6471441 0
-5.7355685 4.7536607 -0.94884598 0
-8.8359032 7.2581587 -1.0608686 0
-48.240185 39.306622 -2.6517587 0
-5.80055 4.6986685 -0.94879639 0
-8.9158716 7.1581717 -1.0607802 0
-48.880035 38.911644 -2.6664007 0
-5.8455281 4.6236792 -0.94873154 0
-9.0158424 7.0681801 -1.0657012 0
-49.424877 38.436695 -2.6709816 0
-5.9105101 4.5686879 -0.94868279 0
-9.0858116 6.9581957 -1.0656064 0
-5.1304173 3.9038079 -0.93814576 0
-7.1706066 5.4135127 -0.98935938 0
-12.666109 9.4776621 -1.2026285 0
-5.1704001 3.8438182 -0.93809426 0
-9.215765 6.7982192 -1.065469 0
-20.616882 15.077277 -0.3271229 0
-9.2707472 6.7382269 -1.0654185 0
-5.2253809 3.7788296 -0.93803859 0
-7.3155565 5.2385392 -0.98921108 0
-51.709324 36.736862 -2.7095139 0
-7.350543 5.1935472 -0.98917258 0
-56.520657 39.673737 8.3131533 0
-9.4156961 6.5532551 -1.0652636 0
-5.3203526 3.6788428 -0.94295549 0
-7.4255166 5.0935631 -0.98908985 0
-13.135954 8.9277401 -1.2071666 0
-6.2004037 4.1887465 -0.95336306 0
-7.4854946 5.0085773 -0.98902047 0
-13.205913 8.7577667 -1.2070279 0
-5.4153218 3.5688632 -0.94286466 0
-9.6356249 6.293294 -1.07005 0
-53.743767 34.787109 -2.7329068 0
-5.4603062 3.5088708 -0.94781625 0
-5.4703002 3.4838793 -0.94279563 0
-6.3453546 3.99878 -0.95320916 0
-13.40582 8.3778324 -1.2017213 0
-5.5252857 3.4288862 -0.94775212 0
-13.445797 8.2728491 -1.2016381 0
-13.470782 8.2078638 -1.1965861 0
-13.505767 8.1378746 -1.1965321 0
-13.540753 8.0778847 -1.1964847 0
-53.753563 31.790461 1.7044845 0
-6.4803066 3.7988133 -0.95805192 0
-7.8003769 4.5286584 -0.99363852 0
-7.8203692 4.4936652 -0.99361122 0
-7.8453612 4.4636712 -0.99358785 0
-10.055473 5.6584005 -1.0745502 0
-13.72566 7.6479635 -1.1911514 0
-18.796066 10.373394 0.27165541 0
-7.9153342 4.338695 -0.99349225 0
-6.5952606 3.593854 -0.95789385 0
-10.145433 5.4734359 -1.0744085 0
-52.777924 28.220976 1.647269 0
-5.7451992 3.0439625 -0.94745481 0
-10.205409 5.3534579 -1.0743188 0
-13.920573 7.2280397 -1.1908337 0
-8.0302925 4.1437325 -0.9933461 0
-52.588207 26.929623 7.1582594 0
-8.0652819 4.0887427 -0.99330592 0
-10.320372 5.1784916 -1.0741893 0
-10.360363 5.1384988 -1.0741607 0
-5.8251643 2.8689988 -0.94732487 0
-8.1252565 3.9587688 -0.99321032 0
-8.1452503 3.9237759 -0.9931848 0
-14.135479 6.7381344 -1.1854731 0
-5.8751473 2.7790184 -0.94725955 0
-10.51532 4.9235358 -1.084006 0
-54.797211 25.39554 0.25932351 0
-10.535306 4.8435545 -1.0789485 0
-54.45686 24.768955 -2.5302131 0
-5.9351277 2.6790419 -0.94718897 0
-8.2502041 3.6788287 -0.99301028 0
-55.532703 24.560007 7.349896 0
-5.9651151 2.6090581 -0.94714057 0
-5.9751096 2.5790648 -0.94712007 0
-8.3101797 3.543859 -0.99291778 0
-10.700243 4.5136266 -1.0837213 0
-14.330343 5.9683032 -1.1749299 0
-14.355331 5.9033184 -1.1748855 0
-14.37532 5.8333364 -1.1698378 0
-14.390309 5.7633519 -1.16979 0
-53.15694 21.088757 4.262455 0
-6.0650744 2.3791149 -0.94698465 0
-6.0700698 2.3491218 -0.94696426 0
-6.0850654 2.3241286 -0.94694781 0
-6.10006 2.2941322 -0.95192862 0
-6.0900559 2.2591434 -0.94690406 0
-6.1200514 2.2391462 -0.95189226 0
-6.115047 2.2041569 -0.94686854 0
-6.1300435 2.1791637 -0.94685245 0
-6.1350393 2.1491711 -0.94683266 0
-6.1450353 2.1241782 -0.94681633 0
-6.1550312 2.0941854 -0.94679725 0
-6.1600266 2.0641928 -0.9467777 0
-6.1650229 2.0342002 -0.94675815 0
-8.580061 2.7940392 -0.99242187 0
-16.80533 5.4043007 0.27530289 0
-14.655149 4.6636105 -1.1590651 0
-6.1850119 1.9492251 -0.94170368 0
-7.1250243 2.2141771 -0.94694185 0
-7.1300201 2.1791859 -0.94691956 0
-7.1400156 2.1441939 -0.94689786 0
-7.1350117 2.1092029 -0.94687486 0
-7.1550078 2.0792105 -0.94685721 0
-7.1700039 2.0492187 -0.94683909 0
-7.165 2.0092278 -0.94681358 0
-7.1899967 1.9842354 -0.9467994 0
-7.1899929 1.9492441 -0.94677734 0
-7.204989 1.9142522 -0.94675684 0
-7.2099857 1.8842608 -0.94673824 0
-7.2199817 1.8492693 -0.94671738 0
-7.2149787 1.8142784 -0.94669521 0
-7.2349753 1.7842863 -0.94667828 0
-7.2449718 1.7492948 -0.94665778 0
-7.2599692 1.719303 -0.94664061 0
-7.2699656 1.6893115 -0.94662297 0
-7.2749629 1.6543202 -0.94660223 0
-7.2599602 1.6143324 -0.94157696 0
-7.2799568 1.5843378 -0.94656062 0
-7.2949538 1.5543462 -0.94654393 0
-7.3249507 1.5243514 -0.95152867 0
-7.2949481 1.484364 -0.94650233 0
-7.2999458 1.4543729 -0.94648492 0
-8.7749481 1.7043207 -0.9767592 0
-8.7799454 1.664331 -0.97673631 0
-11.169949 2.0642335 -1.052178 0
-11.159945 2.0142498 -1.047148 0
-11.154942 1.959263 -1.0471159 0
-11.159938 1.909276 -1.0470877 0
-11.154935 1.8542919 -1.0420558 0
-11.154932 1.804305 -1.0420274 0
-15.114932 2.3741758 -1.147707 0
-6.3649211 0.97948307 -0.93612885 0
-7.3449221 1.0994684 -0.94128525 0
-7.3649206 1.0694768 -0.94127023 0
-7.3649187 1.0344859 -0.9412508 0
-7.3649168 0.99949485 -0.94123149 0
-7.3649154 0.96450382 -0.9412123 0
-7.3699141 0.93451273 -0.9411962 0
-7.3799124 0.89952159 -0.9411782 0
-7.3799109 0.86453056 -0.94115925 0
-7.3699098 0.82953966 -0.94113946 0
-7.3799086 0.79954857 -0.94112432 0
-7.3849072 0.76455748 -0.94110608 0
-7.3799062 0.72956651 -0.94108713 0
-7.3799052 0.69457549 -0.94106865 0
-7.389904 0.66458446 -0.94105375 0
-7.3849034 0.62959355 -0.94103503 0
-7.3949022 0.59460253 -0.94101787 0
-7.384902 0.55961406 -0.93599892 0
-7.3849015 0.52962297 -0.93598342 0
-7.3949003 0.4946295 -0.94096649 0
-7.3948994 0.45963851 -0.94094872 0
-7.399899 0.42964762 -0.94093406 0
-7.3748989 0.38965902 -0.93591154 0
-7.379899 0.35966802 -0.93589699 0
-11.194888 0.49464518 -1.0313352 0
-14.890016 0.60031855 0.27825272 0
-14.759881 0.55965018 -1.1017147 0
-8.869894 0.30968681 -0.97101748 0
-15.414874 0.47465131 -1.1617372 0
-6.4398985 0.17970137 -0.93571687 0
-7.3898978 0.17471758 -0.93580723 0
-7.3748989 0.13972884 -0.93078899 0
-7.379899 0.10473786 -0.93077266 0
-7.3748994 0.074746788 -0.930758 0
-7.3748994 0.039755844 -0.93074143 0
-7.3648996 0.0047646742 -0.93072402 0
-7.3749003 -0.025226241 -0.93071103 0
-7.3649006 -0.060217433 -0.93069375 0
-7.3649015 -0.095208474 -0.93067753 0
-7.3599024 -0.13019961 -0.93066096 0
-7.3599029 -0.16019057 -0.93064737 0
-7.3599038 -0.19518161 -0.93063152 0
-7.3449049 -0.22517063 -0.92561662 0
-7.3549056 -0.26016381 -0.93060184 0
-7.3549066 -0.29515487 -0.93058622 0
-7.3449078 -0.33014619 -0.93056977 0
-7.3399096 -0.36013496 -0.92555618 0
-7.3349109 -0.39512619 -0.92554045 0
-7.3449111 -0.43011984 -0.93052602 0
-7.3349133 -0.46511304 -0.9255091 0
-7.3299146 -0.4951084 -0.92549491 0
-7.3349152 -0.53010571 -0.93047965 0
-7.3149171 -0.56009924 -0.92546415 0
-7.3249183 -0.5950942 -0.92544949 0
-7.3149199 -0.6300897 -0.9254328 0
-7.2999215 -0.66008544 -0.92541814 0
-7.2949228 -0.69508082 -0.92540216 0
-7.2899241 -0.72507626 -0.92538846 0
-7.2799263 -0.76007175 -0.92537224 0
-7.2949276 -0.79506648 -0.92535841 0
-7.2849288 -0.82506204 -0.92534447 0
-13.694948 -1.6098708 -1.0056221 0
-6.354928 -0.76508743 -0.92528105 0
-8.704937 -1.0850132 -0.95536911 0
-13.725019 -1.7645656 -0.36555895 0
-10.819945 -1.4249457 -0.9954263 0
-6.3599319 -0.85507667 -0.93024325 0
-13.680024 -1.8545558 -0.36551663 0
-13.815344 -1.8831084 2.9044831 0
-13.710058 -1.8894076 -0.040504843 0
-7.2449389 -1.0050352 -0.92026401 0
-13.70009 -1.9192636 0.27950865 0
-13.484998 -1.924688 -0.6754688 0
-8.6699467 -1.2599872 -0.95029199 0
-13.740034 -2.054533 -0.37043872 0
-8.6599503 -1.3199794 -0.95026612 0
-13.544978 -2.124804 -1.0003914 0
-6.3249412 -1.0100524 -0.92517555 0
-6.2749438 -1.035048 -0.92016053 0
-6.3149452 -1.0700444 -0.92515004 0
-6.3349466 -1.1000415 -0.93013978 0
-6.3049488 -1.1250362 -0.92512703 0
-6.3149505 -1.1550337 -0.93011594 0
-6.2799525 -1.1800288 -0.92510271 0
-6.2999544 -1.2150259 -0.93009067 0
-6.2949562 -1.2450219 -0.93007839 0
-6.2849579 -1.2700181 -0.93006778 0
-6.2799602 -1.3000141 -0.93005562 0
-6.2649622 -1.3250085 -0.92504466 0
-6.2649641 -1.3550063 -0.93003309 0
-6.2499671 -1.3850007 -0.9250201 0
-6.2499685 -1.4149987 -0.93000865 0
-6.2299709 -1.4349933 -0.92499959 0
-6.2299733 -1.4649892 -0.92498827 0
-6.2099752 -1.4899859 -0.92497718 0
-6.2599778 -1.5349834 -0.93496454 0
-6.18998 -1.5449764 -0.91995502 0
-6.1949825 -1.5799742 -0.92494237 0
-6.1899848 -1.6099702 -0.92493093 0
-6.159987 -1.6299655 -0.91992116 0
-6.1699891 -1.6599629 -0.92491126 0
-6.1649919 -1.689959 -0.92490005 0
-8.3950262 -2.3398447 -0.94485009 0
-8.3650284 -2.369839 -0.9398371 0
-8.3500328 -2.4098346 -0.9398216 0
-8.3100357 -2.4398293 -0.93480778 0
-8.2950392 -2.4748247 -0.93479443 0
-8.3100424 -2.5198207 -0.93978 0
-8.2950459 -2.5598161 -0.93976474 0
-10.10508 -3.1647162 -0.95969772 0
-6.0650139 -1.9199274 -0.91981137 0
-13.970146 -4.4795361 -1.0895464 0
-6.9150338 -2.23487 -0.91476965 0
-6.0250192 -1.9649196 -0.91479313 0
-6.0550203 -1.9899178 -0.91978705 0
-6.045022 -2.0049164 -0.91978109 0
-13.780163 -4.624516 -1.0744835 0
-6.8900433 -2.3298578 -0.91473591 0
-8.1700716 -2.8047845 -0.93467283 0
-8.150075 -2.8397803 -0.93465984 0
-8.1400795 -2.879776 -0.93464589 0
-8.085083 -2.8997703 -0.92463553 0
-8.0850868 -2.9397669 -0.92962277 0
-8.060091 -2.9747632 -0.92960954 0
-8.0400944 -3.0097573 -0.92459691 0
-8.0350981 -3.0497544 -0.92958379 0
-8.000103 -3.0797496 -0.92457187 0
-7.9701061 -3.1047444 -0.91956234 0
-7.9551105 -3.1447403 -0.91954863 0
-7.9301143 -3.1747367 -0.91953778 0
-7.9051185 -3.2047334 -0.91952705 0
-7.8801231 -3.2397282 -0.91451454 0
-7.8651266 -3.2747242 -0.91450298 0
-7.8451309 -3.3047204 -0.91449285 0
-7.8201351 -3.3397169 -0.91448057 0
-7.7951393 -3.3697135 -0.9144702 0
-7.770144 -3.4047086 -0.90945804 0
-7.7551479 -3.4347045 -0.90944874 0
-7.7301521 -3.4647014 -0.90943861 0
-7.7051563 -3.4996982 -0.90942657 0
-12.430309 -5.7093854 -0.99405682 0
-12.365315 -5.7493806 -0.98904157 0
-12.315321 -5.7893767 -0.98902786 0
-12.260328 -5.8343716 -0.98401189 0
-12.190334 -5.8693671 -0.97899818 0
-5.6801114 -2.7548213 -0.90952742 0
-7.5551848 -3.7046752 -0.90436006 0
-29.265896 -14.498434 -2.0024819 0
-6.4401507 -3.2147522 -0.90443861 0
-9.1302576 -4.604547 -0.91419184 0
-28.845934 -14.698415 -1.9824064 0
-6.4001613 -3.2847428 -0.89941764 0
-9.0602713 -4.6995378 -0.91416264 0
-28.610979 -14.998387 -1.9773135 0
-6.3501706 -3.349736 -0.89939797 0
-8.9902849 -4.7895274 -0.90913582 0
-28.58103 -15.39835 -1.9872065 0
-6.2951813 -3.4147282 -0.89437819 0
-8.9202995 -4.8895187 -0.9091059 0
-28.356073 -15.693323 -1.98212 0
-6.2601919 -3.4847205 -0.89435887 0
-8.845314 -4.9745092 -0.90408123 0
-28.196121 -16.023294 -1.9870293 0
-6.2102022 -3.5547142 -0.89433861 0
-8.7703295 -5.0695014 -0.90405369 0
-27.981169 -16.328268 -1.9819438 0
-6.1552124 -3.6147084 -0.89432156 0
-8.6903429 -5.1544929 -0.89902973 0
-27.806221 -16.658239 -1.9818554 0
-6.0952225 -3.6747015 -0.88930464 0
-8.6203585 -5.2444849 -0.89900553 0
-27.621265 -16.968224 -1.9817691 0
-6.0552316 -3.7446988 -0.88928425 0
-8.535367 -5.3294873 -0.89397657 0
-27.406292 -17.268238 -1.9816704 0
-6.0002375 -3.8047023 -0.88926387 0
-8.470376 -5.4194913 -0.89394736 0
-27.211319 -17.588249 -1.9815681 0
-5.9502435 -3.8647032 -0.88424432 0
-8.3953848 -5.5094962 -0.89391768 0
-5.2452078 -3.4647696 -0.90431726 0
-27.006353 -17.968264 -1.9864511 0
-6.8653073 -4.5946212 -0.87909019 0
-26.906374 -18.17827 -1.9863873 0
-5.8602552 -3.9847083 -0.88420582 0
-8.2553988 -5.6595035 -0.88886893 0
-26.766403 -18.528278 -1.9912841 0
-5.8102608 -4.0447111 -0.88418698 0
-8.1704063 -5.7395091 -0.88884282 0
-26.616436 -18.878288 -1.9961812 0
-5.7552667 -4.104713 -0.87916803 0
-8.1054144 -5.8295135 -0.88881564 0
-26.486467 -19.238298 -2.0060787 0
-5.7052727 -4.1697159 -0.87914813 0
-8.0254221 -5.9145169 -0.88378906 0
-26.331499 -19.588308 -2.0109787 0
-5.6602788 -4.2347183 -0.87912905 0
-7.9454308 -5.9945226 -0.88376451 0
-26.17153 -19.93832 -2.0158796 0
-5.6052847 -4.2947216 -0.87911093 0
-7.8754392 -6.0895271 -0.88373649 0
-26.021563 -20.293331 -2.0257816 0
-5.5502906 -4.3547249 -0.87909317 0
-7.800447 -6.1695318 -0.88371325 0
-4.8702488 -3.8747857 -0.88919044 0
-11.095784 -8.888876 0.28185862 0
-7.7354536 -6.2345347 -0.87869418 0
-4.8352532 -3.9197876 -0.88917768 0
-9.6255951 -7.8693705 -0.87834668 0
-6.3553667 -5.2196507 -0.87390232 0
-5.4353032 -4.4847317 -0.8790561 0
-4.7502556 -3.9397919 -0.88416982 0
-7.6154661 -6.3745427 -0.87865436 0
-7.5904698 -6.409544 -0.87864506 0
-7.5554724 -6.4395466 -0.87863648 0
-7.525476 -6.4745483 -0.87862682 0
-7.5004792 -6.5095501 -0.87861764 0
-7.4704823 -6.5445523 -0.87860811 0
-7.4454861 -6.5795536 -0.87859905 0
-7.4154892 -6.6145554 -0.87858963 0
-25.641941 -23.067869 -0.51507688 0
-6.0753932 -5.4946671 -0.86882627 0
-9.1156378 -8.3194036 -0.86822093 0
-9.0706406 -8.3544064 -0.86821139 0
-9.0256433 -8.3844109 -0.86820352 0
-8.9856482 -8.4294138 -0.8681916 0
-8.945652 -8.4694166 -0.86818135 0
-8.910656 -8.5094185 -0.86817145 0
-8.8706598 -8.5494213 -0.8681612 0
-8.8256626 -8.584425 -0.86815226 0
-8.7856665 -8.6244278 -0.86814213 0
-8.7356701 -8.6544294 -0.86313438 0
-8.7006741 -8.6944323 -0.86312497 0
-8.6506767 -8.7294359 -0.86311579 0
-8.6106806 -8.7644386 -0.86310744 0
-8.5656834 -8.7994423 -0.86309886 0
-8.5256872 -8.834445 -0.86309075 0
-8.480691 -8.8744478 -0.86308074 0
-8.4356947 -8.9044514 -0.86307395 0
-8.4006977 -8.9494534 -0.86306345 0
-8.3557005 -8.9794569 -0.86305666 0
-8.3157043 -9.0194607 -0.86304736 0
-8.265708 -9.0494642 -0.86304033 0
-8.230711 -9.0894661 -0.86303163 0
-4.1103182 -4.569828 -0.8790096 0
-4.6403742 -5.1997771 -0.86387348 0
-6.5805683 -7.4446125 -0.87838674 0
-12.706164 -14.489134 -1.0668613 0
-4.5803795 -5.2547812 -0.86386108 0
-6.4905748 -7.5146184 -0.87837136 0
-12.291156 -14.34416 -1.0368927 0
-4.5153842 -5.2997856 -0.86385155 0
-6.3805795 -7.554625 -0.87336338 0
-11.991155 -14.314179 -1.0219003 0
-4.4453893 -5.3447886 -0.85884178 0
-6.3105879 -7.6496315 -0.87834311 0
-11.646152 -14.234201 -1.0019186 0
-5.09547 -6.264729 -0.85364354 0
-11.456149 -14.199214 -0.99192727 0
-4.3403959 -5.4097953 -0.85882926 0
-6.1655984 -7.754642 -0.87832236 0
-11.131145 -14.124235 -0.97194576 0
-4.2754002 -5.4547997 -0.85882044 0
-10.951144 -14.094249 -0.96695387 0
-4.930481 -6.3747406 -0.85362256 0
-18.872047 -24.618612 -1.1596835 0
-5.9906092 -7.859653 -0.87330258 0
-3.6903489 -4.8648515 -0.86894965 0
-7.3107738 -9.7245321 -0.85290158 0
-4.1504102 -5.5548081 -0.85880125 0
-10.37114 -13.989286 -0.93698382 0
-4.7754917 -6.47475 -0.84860432 0
-18.207073 -24.903664 -1.1546357 0
-5.8056211 -7.9796662 -0.8732816 0
-3.5853579 -4.9598598 -0.87393177 0
-7.0707884 -9.8645477 -0.84787738 0
-4.0154181 -5.6298161 -0.85378897 0
-9.8561392 -13.944322 -0.9120028 0
-4.6155005 -6.5647612 -0.8485893 0
-32.674 -46.867363 -1.0349386 0
-9.6861429 -13.969335 -0.90700185 0
-4.5555048 -6.6097655 -0.84858143 0
-17.492138 -25.598721 -1.1595118 0
-5.5256367 -8.1296854 -0.86825752 0
-3.3853657 -5.0148692 -0.8589251 0
-9.3411427 -13.939358 -0.89201629 0
-5.4406409 -8.169692 -0.86825144 0
-4.4255128 -6.6797733 -0.84357095 0
-3.7954319 -5.759831 -0.85376811 0
-3.7854328 -5.7698317 -0.85376668 0
-3.7704337 -5.7798328 -0.85376477 0
-3.7604346 -5.7898331 -0.85376346 0
-3.7454352 -5.7948341 -0.85376298 0
-3.7304358 -5.7998357 -0.85376251 0
-3.7254381 -5.8248353 -0.8537575 0
-3.2703772 -5.1398787 -0.86890411 0
-20.09293 -31.782648 2.0417647 0
-20.648094 -32.812347 2.99698 0
-3.2353792 -5.1598811 -0.86890149 0
-3.6504412 -5.8498406 -0.85375535 0
-4.2205248 -6.799788 -0.84355378 0
-5.1306558 -8.3047123 -0.85823476 0
-6.3058271 -10.254605 -0.8428216 0
-6.280829 -10.264607 -0.84282076 0
-8.4111385 -13.809422 -0.84706998 0
-8.3661385 -13.809425 -0.84707129 0
-8.3311396 -13.819427 -0.84707081 0
-6.1708317 -10.289614 -0.83782029 0
-6.1508336 -10.309616 -0.83781719 0
-4.9456601 -8.3347244 -0.8532362 0
-4.0605335 -6.8847995 -0.84354353 0
-4.0505352 -6.9048004 -0.84354043 0
-4.0355349 -6.9098015 -0.84354103 0
-3.4554498 -5.9498534 -0.84874487 0
-3.0303876 -5.2498937 -0.85889351 0
-13.98704 -24.438986 -1.0298615 0
-5.9258356 -10.409636 -0.8328135 0
-3.3854496 -5.9848609 -0.84874403 0
-7.7761316 -13.879477 -0.82709408 0
-3.8855338 -6.9798164 -0.84353995 0
-13.326996 -24.154045 -0.99995983 0
-4.6306581 -8.4547529 -0.84323704 0
-2.8953874 -5.3199062 -0.85889173 0
-5.6658311 -10.509664 -0.83281612 0
-3.2404487 -6.0448732 -0.84374523 0
-7.4061213 -13.954515 -0.82211053 0
-3.7205327 -7.054831 -0.83854067 0
-12.396933 -23.729128 -0.96510434 0
-4.405652 -8.4947739 -0.83824897 0
-2.8003907 -5.4399185 -0.87387955 0
-5.4108267 -10.599689 -0.82782316 0
-3.1004477 -6.1148858 -0.84374547 0
-7.0411105 -14.024549 -0.81213045 0
-4.2606492 -8.5397873 -0.83325458 0
-3.0454478 -6.1448908 -0.84374547 0
-11.892029 -24.213886 0.28492922 0
-5.1958218 -10.654708 -0.8228333 0
-2.9854465 -6.164896 -0.84374774 0
-6.7461009 -14.069577 -0.80715001 0
-3.4055274 -7.1598592 -0.83355105 0
-13.337491 -28.253267 2.4706991 0
-6.6010962 -14.099592 -0.80715859 0
-4.9858165 -10.714728 -0.82284355 0
-3.9906442 -8.6348114 -0.82826424 0
-3.3055258 -7.1998682 -0.83355451 0
-3.2855253 -7.1998687 -0.82855642 0
-2.8254445 -6.2299104 -0.84375262 0
-2.8154445 -6.2399106 -0.8437525 0
-2.7954438 -6.2399125 -0.84375393 0
-2.785444 -6.2499137 -0.84375381 0
-2.7654433 -6.2499151 -0.84375536 0
-2.7554436 -6.2599163 -0.84375525 0
-2.740443 -6.2649174 -0.84375596 0
-2.4053829 -5.539948 -0.85890126 0
-2.3853819 -5.5299487 -0.85390484 0
-2.3803825 -5.5449486 -0.85390365 0
-2.3703823 -5.5549502 -0.85890329 0
-2.3553822 -5.5549507 -0.85390484 0
-3.6806371 -8.7348385 -0.82828045 0
-5.9360714 -14.164652 -0.79221594 0
-5.9110718 -14.194654 -0.79221416 0
-5.8760705 -14.199657 -0.79221725 0
-4.4608016 -10.844775 -0.81287801 0
-8.7516375 -21.404432 -0.79581821 0
-11.672333 -28.713802 1.005601 0
-8.5816231 -21.279446 -0.78585458 0
-8.5166187 -21.249449 -0.78086686 0
-8.4466133 -21.219456 -0.78087878 0
-5.6260605 -14.22468 -0.78724182 0
-3.4406292 -8.7698584 -0.8183018 0
-2.470437 -6.3449383 -0.83877313 0
-5.4860568 -14.259692 -0.78725171 0
-2.8105152 -7.3649096 -0.82858253 0
-7.8215566 -20.739504 -0.75102174 0
-3.300626 -8.819869 -0.81831074 0
-2.0903761 -5.6299701 -0.84892333 0
-4.0107875 -10.939812 -0.80291486 0
-2.3204339 -6.3899488 -0.83378375 0
-5.1260409 -14.279721 -0.77729154 0
-2.6405113 -7.4249234 -0.82859373 0
-7.0514817 -20.064562 -0.70621324 0
-3.0906188 -8.8648872 -0.81832969 0
-1.9553725 -5.6599798 -0.84893513 0
-3.755779 -11.004834 -0.80293703 0
-2.1704299 -6.4299603 -0.83379614 0
-6.5964422 -19.764595 -0.68631375 0
-2.9506159 -8.919898 -0.81833899 0
-1.8603696 -5.6749859 -0.84394491 0
-6.3664255 -19.669615 -0.68135667 0
-3.5507724 -11.059852 -0.80295503 0
-2.3855045 -7.4999418 -0.82361543 0
-1.7953683 -5.6999898 -0.84394944 0
-1.7803669 -5.689991 -0.84395325 0
-6.026401 -19.524641 -0.67142177 0
-2.7356081 -8.9549141 -0.81336153 0
-1.7253652 -5.694994 -0.83895993 0
-5.8113856 -19.444658 -0.66146255 0
-2.650605 -8.964921 -0.81337166 0
-1.6703638 -5.7099977 -0.83896458 0
-3.2107604 -11.124877 -0.7979908 0
-1.8504187 -6.4799824 -0.82883167 0
-4.0209889 -14.29481 -0.7574327 0
-2.1004941 -7.5449619 -0.81864738 0
-5.2813497 -19.274698 -0.64655828 0
-2.4405968 -8.994935 -0.80839694 0
-1.5353589 -5.7250051 -0.83398139 0
-2.9507508 -11.179897 -0.79801893 0
-1.7004135 -6.5049915 -0.82384956 0
-5.991734 -23.244261 1.4040933 0
-3.6559741 -14.359838 -0.75247562 0
-3.6209731 -14.369841 -0.75247872 0
-3.5859711 -14.364843 -0.75248468 0
-3.5559702 -14.374846 -0.75248802 0
-2.740741 -11.189911 -0.79304874 0
-2.1905873 -9.0399532 -0.80842674 0
-2.1655867 -9.0499554 -0.80842781 0
-2.1455853 -9.0399551 -0.80343306 0
-2.1305861 -9.0699568 -0.80843103 0
-2.1105852 -9.0749588 -0.80843341 0
-2.0905845 -9.0799599 -0.8084358 0
-2.065583 -9.0699615 -0.80844069 0
-2.0505836 -9.0949631 -0.80843973 0
-2.50073 -11.204928 -0.78808188 0
-3.1709502 -14.364874 -0.74754596 0
-5.4217567 -24.744423 0.87421727 0
-5.0116701 -23.124359 1.3889326 0
-5.0467844 -23.46405 3.0839808 0
-1.2303476 -5.7650228 -0.82902145 0
-2.3657229 -11.199938 -0.7881031 0
-5.1817408 -24.714445 0.86917603 0
-4.8317275 -23.259178 2.4989209 0
-4.9818907 -24.213839 4.3440728 0
-1.8605757 -9.119976 -0.80846524 0
-3.8562648 -19.089808 -0.62679482 0
-4.6717181 -23.274195 2.4988978 0
-4.8368893 -24.348854 4.364069 0
-1.2903978 -6.5600162 -0.81890321 0
-3.7162552 -19.049816 -0.6218226 0
-4.3716307 -22.619329 1.8937638 0
-1.2553962 -6.5550175 -0.8139087 0
-2.1307125 -11.219954 -0.78313673 0
-2.6859207 -14.289907 -0.73263252 0
-3.5262432 -19.00983 -0.61685753 0
-4.511723 -24.534403 1.4490457 0
-4.3567123 -24.00432 1.9889494 0
-4.3417239 -24.214321 2.0039747 0
-4.1616712 -23.514343 1.9538509 0
-4.3167834 -24.71422 2.624038 0
-4.2618103 -24.704124 3.2090268 0
-0.99033892 -5.8050365 -0.82905316 0
-1.1053896 -6.5650263 -0.81393182 0
-1.2704602 -7.6350136 -0.80376077 0
-1.5055609 -9.1699972 -0.80351508 0
-1.8156968 -11.224973 -0.77818644 0
-2.2859013 -14.314934 -0.73269296 0
-2.2508993 -14.309937 -0.73269916 0
-2.2208989 -14.329938 -0.73270142 0
-2.1858966 -14.324941 -0.73270774 0
-2.1508942 -14.309942 -0.72771561 0
-1.6606883 -11.219983 -0.77821314 0
-1.3355535 -9.1900072 -0.80353987 0
-1.0904515 -7.6350241 -0.80378985 0
-0.9253819 -6.5800352 -0.8089596 0
-0.90538049 -6.5700364 -0.80896354 0
-0.89538074 -6.5850368 -0.80896389 0
-3.571718 -27.049789 -0.35076609 0
-2.4211655 -18.684904 -0.5970825 0
-1.8208765 -14.309964 -0.72777128 0
-1.4006759 -11.234998 -0.77325439 0
-1.125544 -9.2100201 -0.80357265 0
-0.91544318 -7.6400323 -0.79881895 0
-0.68532681 -5.8450518 -0.82909858 0
-1.6208661 -14.309976 -0.7228049 0
-0.84043837 -7.6200366 -0.79883397 0
-1.9861386 -18.62993 -0.59216452 0
-1.165664 -11.240011 -0.7732935 0
-0.7754367 -7.6500401 -0.79884171 0
-0.65037006 -6.6050491 -0.8090024 0
-0.6353687 -6.5950499 -0.80900657 0
-0.55532354 -5.9000587 -0.8341136 0
-1.2908483 -14.309996 -0.72286224 0
-0.67043078 -7.6400452 -0.79886174 0
-0.49531874 -5.8600607 -0.82912898 0
-0.91065162 -11.260026 -0.77333581 0
-0.59542692 -7.6300488 -0.79387534 0
-0.44531643 -5.8650622 -0.82913792 0
-0.80564481 -11.235031 -0.76835799 0
-0.53042454 -7.6500516 -0.79388511 0
-1.191075 -18.264978 -0.57235324 0
-0.57551581 -9.2100487 -0.79866898 0
-0.35031223 -5.8700666 -0.82915401 0
-1.0210631 -18.219988 -0.56738973 0
-0.60063612 -11.275043 -0.77338898 0
-0.33535564 -6.6250634 -0.80905616 0
-1.026281 -21.779938 -0.22191611 0
-0.6358127 -14.305033 -0.71798015 0
-0.38550502 -9.1900568 -0.79370618 0
-0.2603513 -6.6150665 -0.80907142 0
-2.1034462 -58.759804 0.28818291 0
-0.37061813 -11.250053 -0.76843917 0
-0.23040554 -7.6500654 -0.79394269 0
-0.47600985 -18.070019 -0.56252289 0
-0.26560307 -11.185059 -0.76347268 0
-0.14033861 -6.6150703 -0.80410051 0
-0.34610501 -19.809973 -0.17732862 0
-0.1655909 -11.170062 -0.75849974 0
-0.080331571 -6.6050725 -0.80411649 0
-0.14596055 -17.865034 -0.55263042 0
-0.065578319 -11.150065 -0.7585274 0
-0.025381763 -7.6300721 -0.78899658 0
-0.0052817911 -5.8500767 -0.81923389 0
0.059067216 -17.785044 -0.54769087 0
0.064437993 -11.11007 -0.75356388 0
0.064627774 -7.630075 -0.78901792 0
0.064724423 -5.870079 -0.82424772 0
0.25909513 -17.700054 -0.54275215 0
0.18945408 -11.075075 -0.75359976 0
0.14963721 -7.6350784 -0.79403901 0
0.12973174 -5.8650804 -0.82426512 0
0.45912221 -17.625061 -0.53781188 0
0.31446937 -11.050079 -0.74863446 0
0.23464753 -7.6150794 -0.78906333 0
0.1997399 -5.8400812 -0.81928492 0
0.65415114 -17.510069 -0.53287673 0
0.43948585 -11.005084 -0.74867177 0
0.32465726 -7.6100821 -0.78908587 0
0.26474717 -5.8350825 -0.81930232 0
0.84917957 -17.400076 -0.52794051 0
0.56450099 -10.980086 -0.74370658 0
0.40966722 -7.6000838 -0.78910923 0
0.32975447 -5.8300829 -0.81931996 0
1.0442073 -17.300081 -0.52800298 0
0.68451637 -10.95509 -0.74374187 0
0.49467742 -7.5850854 -0.78913331 0
0.3947612 -5.8400846 -0.82433605 0
1.2342335 -17.225088 -0.52306235 0
0.81453037 -10.955093 -0.74377394 0
0.57968849 -7.5450864 -0.78416014 0
0.45976895 -5.8200846 -0.81935561 0
1.4242599 -17.140093 -0.51812267 0
0.93454599 -10.920095 -0.74381042 0
0.66469753 -7.5550871 -0.78418159 0
0.52977616 -5.8150849 -0.81937337 0
1.8741561 -19.835075 -0.18288711 0
1.6492912 -17.050098 -0.51819408 0
1.0845634 -10.905098 -0.73885131 0
0.91964626 -9.0350943 -0.77905369 0
0.67975426 -6.5250859 -0.79932058 0
2.1391907 -19.775084 -0.17796507 0
1.5144609 -13.700107 -0.6835984 0
1.0196584 -9.0150957 -0.77908313 0
0.75476253 -6.5150852 -0.79434144 0
2.344224 -19.605087 -0.17804241 0
2.0643458 -16.925108 -0.51332033 0
1.3545969 -10.840102 -0.73893058 0
0.95473081 -7.5200896 -0.7842629 0
0.74980158 -5.7750845 -0.81943738 0
2.5642698 -19.230093 -0.16815057 0
1.8545036 -13.610111 -0.67869925 0
1.2446851 -8.9750977 -0.77914774 0
0.91978103 -6.4900851 -0.7943877 0
2.7593033 -19.025095 -0.16322929 0
2.004523 -13.570113 -0.67874527 0
1.3446976 -8.9400959 -0.77417886 0
0.98978931 -6.4850855 -0.79940844 0
2.9843285 -19.035101 -0.16328752 0
2.6344302 -16.555117 -0.49852094 0
2.1895459 -13.520115 -0.67880034 0
1.7646475 -10.740104 -0.73405373 0
1.4847143 -8.9150963 -0.77422011 0
1.8096538 -10.715103 -0.73406947 0
2.3045614 -13.475115 -0.6738385 0
1.8546603 -10.685103 -0.72908568 0
1.5647242 -8.8900967 -0.7742449 0
1.1498083 -6.4350829 -0.79445755 0
3.419395 -18.730104 -0.15844488 0
2.489584 -13.430116 -0.67389333 0
1.999678 -10.645103 -0.72912955 0
1.4097849 -7.405087 -0.77939916 0
1.2398182 -6.4200821 -0.79448318 0
1.2498202 -6.4050817 -0.79448855 0
1.2648218 -6.4050813 -0.79449272 0
1.2798234 -6.4050813 -0.79449689 0
1.2948251 -6.4000807 -0.7945013 0
1.3098266 -6.3950801 -0.78950584 0
1.3248286 -6.3850799 -0.78951073 0
1.3348303 -6.3800793 -0.78951526 0
1.3548317 -6.3900795 -0.79451859 0
1.3698334 -6.3850794 -0.794523 0
1.2248563 -5.6550756 -0.80958128 0
10.798611 -49.03027 0.28356636 0
4.1344862 -18.55011 -0.15866265 0
2.9946475 -13.275112 -0.66905153 0
1.9997771 -8.7600908 -0.76937985 0
1.4648452 -6.3500762 -0.78955472 0
4.2395239 -18.050106 -0.1487579 0
3.1346669 -13.20011 -0.66910028 0
2.0997889 -8.7300882 -0.76941049 0
1.5398531 -6.3400745 -0.78957617 0
4.4645476 -18.090109 -0.15381464 0
3.2796853 -13.155108 -0.66914666 0
2.1998005 -8.7100868 -0.76944065 0
1.5998623 -6.2800717 -0.78460097 0
4.6145782 -17.815105 -0.1438919 0
3.4197044 -13.080105 -0.66419506 0
2.2998118 -8.6900835 -0.76947093 0
1.6848695 -6.3050699 -0.79462039 0
4.8046041 -17.725103 -0.1439566 0
3.5697222 -13.035103 -0.66424131 0
2.3998237 -8.665081 -0.76950133 0
1.7598776 -6.2900677 -0.79464233 0
1.5748948 -5.5750632 -0.80968666 0
1.5848964 -5.5600629 -0.80969131 0
1.5998975 -5.5700626 -0.80969465 0
14.438967 -49.725208 1.4826584 0
14.628977 -49.920208 1.4926351 0
5.1796565 -17.510099 -0.14408752 0
3.844759 -12.890096 -0.65933704 0
3.0898137 -10.265082 -0.71947896 0
2.6148486 -8.6050739 -0.76956904 0
2.2048774 -7.195066 -0.77964461 0
1.9248971 -6.2300601 -0.78969657 0
1.7099124 -5.4850564 -0.80473661 0
15.689104 -49.785202 1.4923213 0
5.4697046 -17.185091 -0.13921037 0
3.9298 -12.245083 -0.6194458 0
2.7698669 -8.555069 -0.76961863 0
2.0249083 -6.195056 -0.78972816 0
5.6447296 -17.070086 -0.13427457 0
1.9449128 -5.8300328 -0.29475626 0
2.8448792 -8.4550638 -0.76465237 0
2.4199016 -7.135057 -0.7797116 0
2.1099176 -6.1700516 -0.78975499 0
1.8849297 -5.4750476 -0.80978632 0
2.1799097 -6.2600136 0.28023541 0
2.2449093 -6.4000139 0.28023618 0
2.0299201 -5.7450109 0.28020799 0
2.0349221 -5.7250104 0.28020322 0
2.064923 -5.7650108 0.2802006 0
2.0699279 -5.7200193 -0.004804939 0
2.0849295 -5.7200189 -0.0048089623 0
2.0999296 -5.7250147 0.14018713 0
2.1099298 -5.7250104 0.28018305 0
2.1249301 -5.7300067 0.42017913 0
2.1499305 -5.7600031 0.56517601 0
2.0299461 -5.4050388 -0.80983484 0
2.2999396 -6.0950403 -0.78981817 0
3.1899161 -8.3950491 -0.76975536 0
2.1749418 -5.6900206 -0.14483824 0
2.1799414 -5.6650133 0.140157 0
2.2099402 -5.7100062 0.42015415 0
2.2399392 -5.7599998 0.71015131 0
2.3699472 -6.0650363 -0.7898407 0
3.2849271 -8.3600426 -0.76978624 0
2.2399485 -5.6650157 -0.0048592091 0
2.2649469 -5.700006 0.42013752 0
2.3149447 -5.7949972 0.86013556 0
2.7999451 -6.9800353 -0.77483654 0
2.2749543 -5.640017 -0.14487204 0
2.2849541 -5.6300116 0.14012367 0
2.9349403 -7.200006 0.64515281 0
2.1849635 -5.3400278 -0.8048867 0
3.4199421 -8.3050356 -0.76982963 0
2.3249595 -5.6200128 -0.0048888326 0
2.3449588 -5.6400051 0.42010742 0
2.414957 -5.7799988 0.86510587 0
2.9099579 -6.930028 -0.77487302 0
2.364965 -5.6000137 -0.14490145 0
2.3799644 -5.6100073 0.28009462 0
3.0249548 -7.1000028 0.82011461 0
2.5599685 -5.9750228 -0.78990364 0
2.4049699 -5.5900145 -0.28991386 0
2.4199698 -5.5900083 0.14008203 0
2.4649692 -5.6800027 0.57007915 0
2.2899766 -5.2450185 -0.79992688 0
3.5949636 -8.2000237 -0.76489174 0
2.4549749 -5.5650086 -0.004930675 0
2.479975 -5.6000037 0.42006558 0
