# .PCD v0.7 - Point Cloud Data file format
VERSION 0.7
FIELDS x y z intensity
SIZE 4 4 4 4
TYPE F F F F
COUNT 1 1 1 1
WIDTH 1410
HEIGHT 1
VIEWPOINT 0 0 0 1 0 0 0
POINTS 1410
DATA ascii
8.4435873 -0.2896626 1.6811235 0
6.7340183 -0.28980026 -0.65592527 0
6.6887965 -0.23772053 0.44287169 0
5.2489996 -0.21714172 -0.70404208 0
6.7490091 -0.25999674 -0.6620785 0
8.3289156 -0.28294411 -0.10048288 0
6.7286277 -0.16760811 1.2307591 0
5.4989734 -0.18380111 -0.62021708 0
7.9190021 -0.24858305 -0.63728046 0
8.303895 -0.22301702 -0.10279593 0
6.6936145 -0.12295327 1.2240299 0
5.2639747 -0.1421525 -0.70692515 0
6.6735411 -0.080820858 1.5426477 0
6.0389752 -0.13703564 -0.71197557 0
6.5035052 -0.041238394 1.6661905 0
6.8839679 -0.12575302 -0.68722546 0
8.0689631 -0.12433967 -0.66203034 0
8.2139225 -0.10244747 -0.48270682 0
8.2288799 -0.080233395 -0.29341331 0
8.2038364 -0.05304667 -0.10431585 0
8.2435303 0.015574788 1.4391983 0
7.0135231 0.039852187 1.4330314 0
5.4489422 -0.023430582 -0.74644244 0
6.9534826 0.075641096 1.5867734 0
6.4534664 0.092665926 1.6460738 0
8.0989132 0.020614397 -0.66753531 0
8.1688328 0.054819852 -0.2935473 0
8.2286062 0.10812541 0.85026789 0
7.2384863 0.13595003 1.4644639 0
7.0784526 0.15635657 1.6087648 0
7.0789003 0.083309129 -0.72013593 0
8.043808 0.12490107 -0.29121044 0
8.173583 0.18275158 0.84244204 0
6.2488999 0.10185593 -0.75101388 0
12.42382 0.24000496 -0.59991515 0
8.1684608 0.2345265 1.420907 0
6.4883928 0.22858411 1.8110827 0
8.108674 0.21614221 0.27077577 0
7.0684237 0.2508311 1.6002113 0
9.23382 0.23916011 -0.59047902 0
8.0985899 0.26537624 0.64919829 0
6.7034302 0.26814237 1.5344512 0
8.3638372 0.25430667 -0.71129096 0
8.0585423 0.30723974 0.83275747 0
6.3538699 0.20112728 -0.77471936 0
9.3237925 0.3237772 -0.60362685 0
8.0534592 0.35622922 1.206193 0
6.3838606 0.23094645 -0.78082645 0
9.4287767 0.37341726 -0.61546218 0
7.9684839 0.38379261 1.0100189 0
7.878376 0.41432059 1.5592508 0
6.8633556 0.39012751 1.7250789 0
8.388792 0.38427389 -0.71611381 0
9.4787464 0.45820999 -0.62359786 0
13.158673 0.66819119 -0.66576517 0
13.153663 0.69817483 -0.66687334 0
13.323652 0.73266304 -0.6831255 0
13.248641 0.76280653 -0.67924678 0
13.443627 0.80248851 -0.69068182 0
13.463616 0.83729267 -0.69696295 0
13.578602 0.87713099 -0.7034117 0
13.643591 0.91195339 -0.70968175 0
8.8986816 0.61496955 -0.57441688 0
8.4937162 0.60368234 -0.73917437 0
7.5437489 0.55075169 -0.80742037 0
6.5687737 0.49486065 -0.82052505 0
6.5787692 0.50967765 -0.82606542 0
6.5937638 0.52468246 -0.82660782 0
6.5987597 0.53949791 -0.83214796 0
7.6437178 0.64521426 -0.82585204 0
7.6787114 0.66503847 -0.83156896 0
8.8086195 0.79003537 -0.57579291 0
14.80344 1.3540422 -0.81067443 0
8.9034081 0.87331504 0.45688722 0
8.9383593 0.90605235 0.66584527 0
8.1282139 0.87472898 1.5874978 0
8.9282703 0.95629352 1.0793087 0
8.9432602 0.9814344 1.0834068 0
8.8782587 0.99118525 1.0780519 0
15.428331 1.6624892 -0.86675632 0
8.9285879 0.98169911 -0.807827 0
7.8586383 0.87914807 -0.86426938 0
6.768681 0.77343357 -0.87056899 0
8.8730583 1.1421788 1.9231751 0
16.388216 1.9951396 -0.9486295 0
8.762888 1.2131364 2.7711926 0
8.8329153 1.2355582 2.565269 0
8.91294 1.2631727 2.3641617 0
6.0336847 0.78229374 -0.89592195 0
10.858399 1.4681499 -0.80001748 0
6.8686233 0.94273067 -0.89657891 0
11.993327 1.7046317 -0.91342163 0
6.9186053 0.99738133 -0.90850735 0
8.7578115 1.4373986 2.7682824 0
6.9585857 1.052212 -0.91543329 0
6.1236339 0.9364236 -0.92635477 0
8.8077774 1.5278071 2.7851319 0
8.223485 1.3220339 -0.93992674 0
10.273348 1.6958075 -1.0031002 0
14.0431 2.3828874 -1.1373317 0
14.168067 2.4725502 -1.1504585 0
6.2185788 1.0957468 -0.95190358 0
8.4034138 1.525995 -0.97702193 0
14.432988 2.6915164 -1.1880678 0
7.1884813 1.3556616 -0.97099102 0
10.788211 2.083581 -1.0815772 0
25.972109 5.1423297 -1.7542508 0
7.2434483 1.4501452 -0.98923779 0
11.018149 2.2575598 -1.1175767 0
26.191969 5.5016298 -1.7865624 0
7.3234115 1.5546367 -1.0078175 0
11.248085 2.436543 -1.1537185 0
26.871796 5.9598055 -1.8572769 0
7.3933764 1.6541312 -1.026198 0
11.448018 2.6205196 -1.1900043 0
27.366629 6.3984718 -1.912215 0
6.4634304 1.5237328 -1.0265304 0
6.46842 1.5535622 -1.032526 0
6.4984074 1.5933933 -1.0388703 0
6.5133963 1.6282223 -1.0450361 0
6.5233855 1.6630498 -1.0511996 0
6.5483727 1.7028811 -1.0575337 0
6.5533633 1.7327107 -1.0635147 0
6.5733504 1.7725407 -1.0698439 0
6.5883398 1.8073725 -1.075994 0
6.6133265 1.8472054 -1.0823154 0
6.6383142 1.8870389 -1.0886334 0
6.6733027 1.9267018 -1.0999422 0
6.6782894 1.9665288 -1.1062562 0
6.7082772 2.0063663 -1.1125628 0
6.7332644 2.0462022 -1.1188666 0
6.7632508 2.0908625 -1.1303377 0
6.7782407 2.125699 -1.1364611 0
6.8082271 2.1703618 -1.1479237 0
6.8182139 2.2103686 -1.1492184 0
6.8482022 2.2500355 -1.1605006 0
6.8631878 2.2948685 -1.1669581 0
6.8981748 2.339536 -1.1784055 0
6.9231606 2.3843739 -1.1848536 0
6.9481468 2.4290397 -1.1962934 0
6.9781332 2.4738808 -1.2027326 0
7.0181179 2.5235512 -1.2143359 0
7.0431051 2.5682194 -1.2257648 0
7.0780897 2.6178896 -1.2373602 0
7.0930777 2.6577308 -1.2436137 0
7.1030641 2.7025681 -1.2500342 0
7.1480494 2.7522447 -1.2616161 0
7.1580358 2.7970829 -1.2680299 0
7.1630239 2.8369229 -1.2742695 0
9.9925861 4.0402951 -1.374759 0
7.2629833 2.9711118 -1.3035259 0
26.665121 11.132246 -2.7987611 0
27.214998 11.505288 -2.8708997 0
10.0975 4.3243122 -1.4135897 0
7.2879295 3.1554904 -1.3291823 0
7.2379227 3.1758335 -1.3197316 0
10.172432 4.5484977 -1.4454919 0
10.262401 4.6480074 -1.4636419 0
6.9279265 3.1725261 -1.2691382 0
15.221574 7.0607791 -1.9238901 0
51.810333 24.355982 -3.2047234 0
15.50648 7.3593202 -1.978267 0
49.524601 24.003878 3.327543 0
10.532266 5.0910649 -1.537335 0
50.699635 24.928699 0.76192957 0
10.547238 5.1857471 -1.5501633 0
49.634323 24.908983 3.3354921 0
10.732183 5.3646126 -1.5907767 0
49.460159 25.063152 -3.1366303 0
49.804073 25.704268 3.3467984 0
8.0276117 4.1312304 -1.34445 0
16.856039 8.7673721 -2.2373266 0
6.8428121 3.5819812 -1.3011059 0
11.04204 5.8423676 -1.675404 0
48.394379 26.030411 0.69883752 0
8.2175283 4.4196291 -1.4032472 0
17.285847 9.394824 -2.3364749 0
6.6128063 3.6181698 -1.2666683 0
48.709423 27.000059 -1.9010398 0
6.7527676 3.7520442 -1.3058325 0
8.4324369 4.7328806 -1.4677559 0
11.536828 6.5490303 -1.8019071 0
49.123314 28.386942 3.3155036 0
8.472394 4.8872576 -1.4922922 0
8.6273518 5.026135 -1.5316141 0
11.951682 7.0363283 -1.901799 0
47.503716 28.408337 0.64251149 0
6.667706 3.9869664 -1.3173282 0
12.1166 7.3150811 -1.950094 0
47.708458 29.283239 0.63220227 0
51.178211 31.44985 -3.5442827 0
9.1271763 5.627336 -1.6699026 0
52.962696 33.041241 -3.7036297 0
24.088882 15.110448 -2.2000403 0
18.875097 11.875243 -2.7159286 0
9.1071396 5.7620578 -1.6836405 0
6.6476436 4.2263966 -1.3440105 0
23.388588 15.105487 0.4380706 0
23.168531 15.056067 1.0803025 0
6.7276115 4.3406119 -1.3724151 0
9.3670483 6.0750146 -1.7580914 0
12.45637 8.1168489 -2.0785036 0
9.4520149 6.1893935 -1.7815037 0
9.5319901 6.2737617 -1.8040783 0
6.7175846 4.4453263 -1.3853005 0
9.5019798 6.3187828 -1.805249 0
24.423702 16.308781 -3.6848917 0
23.193695 15.612311 -1.5262316 0
23.19342 15.744978 0.42586321 0
23.033192 15.757401 2.3767927 0
6.8125372 4.6192431 -1.4253821 0
9.6469069 6.5725598 -1.8526738 0
22.418947 15.357703 -2.7524331 0
23.258572 16.041719 -1.5532422 0
22.868557 15.873266 -0.87220752 0
22.893368 15.994585 0.41992944 0
22.98316 16.171318 1.7253281 0
6.7825069 4.7391315 -1.433591 0
13.366001 9.3754768 -2.3209217 0
24.073444 16.97603 -3.0118694 0
22.828623 16.201206 -2.1965678 0
23.443377 16.730762 -1.5976769 0
23.118433 16.576382 -1.5724268 0
22.218548 16.023304 -0.86423612 0
21.988585 15.93343 -0.85605347 0
21.883509 15.953384 -0.22603056 0
21.81843 15.993314 0.40336385 0
22.792997 16.821003 1.7282802 0
10.086679 7.3882923 -2.0163367 0
23.573273 17.383278 -2.3210843 0
21.723391 16.153124 0.39935902 0
22.237925 16.67557 2.9945593 0
23.623386 17.549 -3.7262418 0
24.23296 18.138462 -1.7033893 0
21.158478 15.957477 0.39153045 0
22.862852 17.356213 1.7386361 0
7.1873221 5.4148359 -1.5932312 0
23.188316 17.572128 -2.9951019 0
21.048594 16.073536 -0.84169555 0
20.748426 15.971283 0.99775398 0
22.772791 17.615988 1.7369794 0
21.832947 16.983692 2.3224187 0
22.437677 17.556963 3.0502162 0
15.030338 11.648775 -2.7679586 0
20.373665 15.933858 -0.82060504 0
23.667456 18.65354 1.801123 0
7.2872443 5.708344 -1.6514825 0
22.388256 17.644957 -2.2690074 0
21.018291 16.692102 0.38236728 0
22.537542 18.047739 3.0818071 0
10.311463 8.1850777 -2.1485054 0
22.668039 18.124947 -1.6425076 0
22.262892 17.928097 0.38498917 0
21.667801 17.583506 2.332027 0
10.436404 8.3990269 -2.1896441 0
22.293072 18.075371 -1.6247919 0
22.892651 18.698483 0.38222152 0
21.50771 17.708298 2.9745913 0
15.485061 12.639757 -2.9310167 0
21.498142 17.692005 -0.91640067 0
21.407774 17.777668 2.3178809 0
7.3921452 6.0915976 -1.7220237 0
23.307772 19.320938 -2.4417942 0
20.882957 17.481043 1.6374999 0
7.4821095 6.220686 -1.755765 0
21.80805 18.265718 -1.6129428 0
17.018976 14.401555 1.9085157 0
15.584942 13.083331 -2.9931042 0
21.582989 18.266468 -0.94185972 0
17.038998 14.53557 1.3947531 0
7.4370918 6.3007402 -1.7576935 0
21.692991 18.515484 -1.6240762 0
17.798801 15.310809 0.90125728 0
21.822226 18.937838 4.4265914 0
17.018505 14.87658 5.1469607 0
17.40888 15.12008 0.88777387 0
21.982214 19.222754 3.7783349 0
15.834767 13.72085 -3.0957689 0
20.44809 17.886522 -0.27211866 0
21.022612 18.531904 2.319685 0
10.596178 9.2707634 -2.3281817 0
17.139069 15.120377 -0.7166847 0
16.808855 14.956199 1.9149148 0
10.631147 9.3853378 -2.3462992 0
16.114386 14.33579 -1.1672065 0
16.244049 14.578543 1.3568567 0
7.487 6.669189 -1.8224878 0
16.838413 15.331359 5.1759219 0
16.459007 14.893327 0.85762656 0
7.5169749 6.763751 -1.8400962 0
16.753469 15.379013 4.6198611 0
17.588751 16.031357 -0.21197441 0
16.443848 15.11014 1.8974594 0
10.716048 9.768774 -2.4115958 0
16.89398 15.529957 -0.73123825 0
17.023512 15.810843 3.0523 0
17.223179 16.116299 5.3490543 0
17.088709 15.894388 0.87909377 0
10.686022 9.8786831 -2.4193017 0
16.893927 15.744861 -0.73676348 0
17.188406 16.177 3.0922139 0
17.273172 16.364761 4.8172965 0
16.873898 15.869646 -0.74487627 0
14.894068 14.163842 3.2140782 0
16.703203 16.004524 5.8143935 0
16.853695 16.034071 0.87657082 0
16.938229 16.277342 4.7559714 0
15.989114 15.245411 -0.69990301 0
14.918957 14.384406 3.7282295 0
16.528156 16.055588 6.3591237 0
16.548508 16.00893 3.0193529 0
16.458162 16.065098 6.349174 0
16.783415 16.305456 3.0657496 0
16.503128 16.180813 6.37603 0
16.23358 15.842221 2.9750619 0
16.478121 16.225779 6.3800192 0
16.218567 15.902258 2.978591 0
15.918244 15.761267 6.7445641 0
16.003565 15.777316 3.4829421 0
30.424603 29.773893 -2.607312 0
7.4718509 7.2970419 -1.918555 0
31.32929 30.796789 -2.7025626 0
7.4568467 7.3170586 -1.918999 0
29.214912 28.851118 -2.5081618 0
7.481833 7.3717699 -1.9304922 0
31.304226 31.056442 -2.7190547 0
7.4818244 7.4066339 -1.9363832 0
15.708178 15.917216 7.3018174 0
15.193699 15.328068 3.8679905 0
16.388794 16.429253 -0.75688839 0
15.093718 15.297343 3.849236 0
16.408772 16.51922 -0.75923598 0
16.922998 17.239538 4.8716559 0
15.03409 15.23057 0.31531018 0
15.423459 15.797297 5.0054021 0
15.368857 15.666642 1.3380146 0
15.633366 16.084669 5.0821519 0
15.268874 15.63143 1.3344086 0
16.078129 16.626566 5.8015709 0
15.038884 15.475972 1.8246268 0
16.043066 16.678534 6.3706269 0
16.19836 16.763435 3.0419543 0
15.563169 16.264982 6.768548 0
7.5217466 7.7253981 -1.9896514 0
15.528108 16.312052 7.3427539 0
7.5567284 7.7949605 -2.0065668 0
15.488103 16.351841 7.3419127 0
11.255558 11.660832 -2.7423251 0
15.49387 16.190287 -0.20627874 0
17.778475 18.496557 -3.8918412 0
15.658743 16.450949 0.31152117 0
16.342983 17.348316 5.3769822 0
15.09881 15.961214 1.3369482 0
14.219451 14.962607 -2.0997889 0
16.12833 17.142033 2.5076072 0
14.454311 15.281339 -1.6487656 0
14.753695 15.780902 3.343904 0
14.189331 15.086465 -1.137399 0
11.420442 12.103833 -2.8242831 0
15.04393 16.090137 -0.20153651 0
15.363272 16.614273 5.1152134 0
14.81389 15.93543 0.81886923 0
13.729591 14.700008 -2.5158544 0
15.613492 16.888794 1.9163591 0
15.293152 16.712515 6.2385063 0
15.618364 16.996336 3.0090134 0
15.103151 16.592112 6.7376637 0
16.018084 17.532598 4.2136078 0
14.304163 15.565496 -0.67476904 0
16.373735 17.758339 -3.6561828 0
14.578904 15.96991 0.80923522 0
14.698382 16.269728 5.5024042 0
15.758313 17.370945 2.4937944 0
14.139281 15.506319 -1.6527593 0
7.5466204 8.2632408 -2.0832484 0
15.452887 17.295769 7.543611 0
14.248623 15.894104 4.3237143 0
14.284006 15.849623 0.30361602 0
15.10902 16.701395 -2.8579836 0
15.513397 17.328905 1.9309211 0
14.698258 16.581995 6.0998335 0
15.823105 17.785049 3.6485682 0
15.477878 17.549543 7.0119939 0
16.212873 18.320551 4.3280315 0
15.063777 16.924107 -0.74754107 0
14.018641 15.927683 4.2940841 0
14.123993 15.964437 0.30160776 0
15.57797 17.789377 5.3249354 0
14.42382 16.389711 0.80963552 0
14.819025 16.762114 -2.8379359 0
15.823187 18.085451 1.9805306 0
13.439427 15.28866 -2.0738161 0
14.538548 16.706144 2.8869345 0
13.819236 15.796295 -1.6582483 0
14.518488 16.771679 3.4155982 0
15.262854 17.783638 7.0173769 0
7.4165754 8.4979982 -2.1033428 0
14.049073 16.220095 -1.1998119 0
16.212734 18.917011 4.3983092 0
14.074046 16.324921 -1.2075405 0
7.446547 8.6124382 -2.1263363 0
13.784178 16.050972 -1.6743418 0
14.698345 17.293646 3.4867766 0
14.09905 16.489725 -1.7268865 0
14.748309 17.429096 3.5031884 0
13.679182 16.071123 -1.6692286 0
14.718299 17.484118 3.5069559 0
14.543904 17.157581 -2.3259859 0
15.897873 18.955683 3.1891229 0
14.393937 17.063051 -2.3078351 0
16.087938 19.240211 1.4654729 0
14.308996 17.032818 -2.8267992 0
15.253344 18.290127 0.29316169 0
13.898447 16.829519 4.402606 0
13.738978 16.544621 -0.70588565 0
7.3664989 8.8468637 -2.1566763 0
14.752908 18.068312 6.3930302 0
14.648211 17.889681 3.5424218 0
14.323821 17.387999 -1.8052258 0
7.3664808 8.926609 -2.1686158 0
14.198849 17.313164 -1.7976522 0
7.3764696 8.9763355 -2.179868 0
13.863172 17.229052 6.6287503 0
14.788042 18.317753 4.1609993 0
13.798912 16.994278 -1.2373761 0
7.3964434 9.085784 -2.2026658 0
13.798894 17.074112 -1.2443278 0
14.763015 18.452909 4.1728706 0
13.458959 16.739462 -0.70900393 0
13.104355 16.243889 -3.6358435 0
13.358977 16.694597 -0.70233202 0
13.144323 16.368334 -3.6591082 0
13.359005 16.759878 -1.2090734 0
7.4563823 9.3345366 -2.2541008 0
14.02878 17.66785 -1.8152819 0
16.152634 20.521248 1.5088481 0
13.368399 17.132542 4.9034305 0
14.658402 18.667576 -0.81302333 0
15.932681 20.420691 1.4976465 0
13.164226 16.781908 -3.7242959 0
13.748087 17.879652 6.1834879 0
14.173532 18.298027 -0.78610289 0
15.882634 20.645723 1.5025047 0
7.4363189 9.6235199 -2.3010101 0
13.50323 17.795609 5.0266008 0
27.238419 35.624725 -2.845006 0
15.332843 20.202116 0.8763684 0
14.757807 19.598944 3.7303464 0
13.413116 17.952448 6.143712 0
13.693601 18.193089 -0.77567565 0
14.827983 19.816154 0.85877478 0
13.74354 18.437864 -0.78690803 0
26.788359 36.039692 -2.8522224 0
13.802845 18.909603 6.4033346 0
3.8125501 5.1934533 -0.47125557 0
13.717844 18.969233 6.4024582 0
3.7925484 5.2134376 -0.47159413 0
3.7725887 5.2052569 -0.93143284 0
3.7675846 5.2252569 -0.93188834 0
3.7475867 5.2252607 -0.93177223 0
3.7775321 5.2982535 -0.47855219 0
3.7525506 5.2838244 -0.6330862 0
13.153822 18.536087 -3.9965413 0
3.7725151 5.387929 -0.49063537 0
3.7974916 5.4827552 -0.49809018 0
3.7724934 5.4927435 -0.49812666 0
13.103675 19.198999 -4.0970492 0
13.208591 19.537352 -4.1657839 0
13.223516 19.856195 -4.218493 0
27.981476 42.972504 -0.9297725 0
8.9552479 13.865695 -3.2324467 0
27.086645 42.652374 -0.9160831 0
27.386326 43.595547 0.25490078 0
27.326265 43.940479 0.25219998 0
8.9001455 14.418618 -3.3301091 0
26.84127 44.270069 0.24790469 0
26.371666 43.890244 -3.3309867 0
8.8100281 15.106231 -3.4455979 0
8.7399101 15.798565 -3.5712345 0
8.674777 16.565659 -3.708595 0
22.387182 44.267723 -3.2350223 0
8.5946407 17.372526 -3.8566897 0
22.087004 45.45137 -3.3049996 0
17.39933 36.471874 -0.70029449 0
21.367016 45.583328 -2.1120369 0
8.559453 18.433125 -4.0608091 0
9.8586941 21.495716 -4.7718749 0
16.454464 36.601555 -0.69564629 0
15.764843 35.487839 -1.5647674 0
17.148994 39.088047 -2.7490008 0
16.874023 39.183071 -2.748915 0
15.234191 36.160686 8.5715256 0
15.074211 36.225079 8.5664206 0
15.789293 38.100838 -0.72453141 0
15.079124 36.948151 7.7495289 0
17.712479 43.651955 6.8449984 0
16.198963 40.102234 -2.7943082 0
14.959699 37.271736 -2.5742104 0
14.229412 36.030239 8.462883 0
15.233736 38.816223 8.0807028 0
14.799717 37.60672 -3.5358067 0
14.894443 38.125595 -0.71755302 0
15.249218 39.294697 -1.7275412 0
14.219183 37.230579 8.6956539 0
14.199865 37.072418 -2.5432155 0
14.589008 38.716488 6.0436001 0
8.9884176 23.778774 -5.1519365 0
13.55451 36.47979 7.5630684 0
14.359025 38.871181 6.052177 0
14.299016 38.981365 6.065186 0
14.419207 39.555252 0.22923726 0
12.120606 33.51725 2.7270808 0
14.403893 40.093102 4.2034249 0
14.119155 39.560631 2.1873844 0
13.749626 38.7855 -2.6433568 0
13.119375 37.637657 7.7355294 0
12.145055 35.088253 7.2268319 0
11.505602 33.460266 5.209579 0
11.360703 33.297916 4.3492036 0
12.879925 37.982094 -2.5675268 0
11.750109 35.227219 7.2271595 0
11.045709 33.363503 5.1757431 0
11.529879 35.399963 11.85159 0
12.968941 40.077206 8.1616716 0
10.910619 33.980045 5.2529931 0
10.800702 33.887978 4.395812 0
14.907536 47.119884 3.6794617 0
12.114903 38.580811 -1.6439961 0
11.810122 37.937687 -2.5420849 0
10.780416 35.203518 5.4115314 0
11.560104 38.026321 -1.6114998 0
11.234762 37.600132 7.6230998 0
12.239077 41.315811 4.2497511 0
11.450007 38.926567 -2.6011722 0
10.630191 36.795368 4.7166262 0
12.998099 45.757252 4.6676912 0
11.464687 40.674217 -2.7208092 0
11.189501 40.406944 3.1645677 0
11.084453 40.772511 3.1922078 0
10.025065 38.586895 3.0262001 0
-6.8102579 34.907574 3.7014523 0
-29.318956 54.082573 -3.5483577 0
-31.492966 47.499287 -3.1917374 0
-34.837532 49.088264 -3.3418984 0
-40.971615 47.609726 -3.3925898 0
-24.540764 24.245623 -4.9414611 0
-16.875381 14.649849 -4.1444697 0
-16.050331 13.314749 -3.8425705 0
-15.450311 12.348268 -3.6219268 0
-14.820291 11.351846 -3.3959546 0
-14.290276 10.54472 -3.2131374 0
-13.950265 10.001596 -3.0945382 0
-52.424866 36.32383 -3.1734314 0
-13.190242 8.7958174 -2.8256185 0
-12.920235 8.3573236 -2.7288361 0
-12.585225 7.8240995 -2.6156166 0
-53.769684 32.231834 -3.049684 0
-12.035212 6.9669986 -2.4276183 0
-16.390137 9.196456 -2.9240754 0
-52.094643 28.864824 -2.853261 0
-18.690111 10.180154 -1.8297312 0
-11.540202 6.1944761 -2.2661579 0
-50.944668 27.093777 -0.046836227 0
-11.270199 5.8207355 -2.1807497 0
-11.170197 5.6761565 -2.1536527 0
-11.025195 5.4768486 -2.105808 0
-50.329639 24.598972 -0.0089466274 0
-53.90963 25.822451 4.1592212 0
-53.969627 25.387108 4.1558962 0
-10.615191 4.8886824 -1.9824843 0
-54.069611 24.551418 4.1486959 0
-13.570136 5.9962926 -2.2293394 0
-13.370137 5.7619696 -2.1811752 0
-10.185188 4.3055325 -1.8544483 0
-12.970139 5.3132963 -2.0851874 0
-12.71514 5.0390935 -2.0265927 0
-12.495141 4.789824 -1.9733262 0
-12.270144 4.5455418 -1.9201691 0
-9.5301857 3.4531577 -1.6681439 0
-16.760069 5.9071813 -2.2839859 0
-11.870146 4.091784 -1.8293788 0
-9.2651873 3.1241229 -1.5989273 0
-11.600149 3.8225503 -1.7710283 0
-16.770088 5.4301004 -0.59741032 0
-16.705078 5.3117204 -1.4109964 0
-11.325152 3.5333815 -1.7074656 0
-8.9401884 2.7203362 -1.5089018 0
-14.590102 4.3017807 -1.9047389 0
-10.920157 3.1395261 -1.6177189 0
-8.7001896 2.4361298 -1.4504533 0
-13.940113 3.7732034 -1.788548 0
-10.530163 2.7705319 -1.5383863 0
-8.4601927 2.1619461 -1.3872244 0
-13.315125 3.2794752 -1.6829246 0
-10.13017 2.4165487 -1.4543568 0
-8.2351952 1.9076381 -1.3343045 0
-12.730136 2.8306527 -1.5829374 0
-12.55514 2.7010109 -1.5515261 0
-8.025198 1.688287 -1.2818583 0
-7.9701991 1.6184835 -1.2660931 0
-12.10015 2.3469245 -1.4727143 0
-7.825201 1.4788686 -1.2345895 0
-11.775157 2.1175113 -1.4203098 0
-18.410086 3.1883614 -1.934931 0
-16.150118 2.6807556 -1.6601403 0
-9.0901937 1.4640018 -1.2490747 0
-15.510133 2.3965573 -1.5773224 0
-11.160176 1.6735762 -1.3207855 0
-11.075179 1.6036954 -1.3100975 0
-7.4152136 1.0399749 -1.1400555 0
-10.875186 1.4490763 -1.2735759 0
-7.3102164 0.94021124 -1.1190739 0
-10.715192 1.3043661 -1.2471716 0
-7.2202191 0.84544373 -1.098156 0
-10.480197 1.1547308 -1.2107552 0
-7.1202216 0.75067127 -1.0772578 0
-36.360027 3.600111 -3.1614218 0
-36.030037 3.4104989 -3.1246848 0
-35.73505 3.2158027 -3.0979223 0
-35.595058 3.0410306 -3.081342 0
-35.520069 2.8712201 -3.0698175 0
-35.435078 2.7064078 -3.0583479 0
-12.655201 0.91007531 -1.2133493 0
-7.975224 0.53121376 -1.0401933 0
-12.365208 0.74541712 -1.176921 0
-9.6302204 0.53604782 -1.0801851 0
-9.5602226 0.48614839 -1.0697619 0
-9.4852228 0.44124788 -1.0593821 0
-11.940218 0.50090331 -1.1248554 0
-6.6552334 0.26174754 -0.97791147 0
-9.3052273 0.32649282 -1.0334297 0
-9.2302284 0.28158906 -1.0230633 0
-9.1552296 0.24172284 -1.0077391 0
-9.1152315 0.19678098 -1.00238 0
-9.015233 0.15191151 -0.98702419 0
-8.9552336 0.11196706 -0.98171031 0
-8.8502359 0.067094967 -0.96636176 0
-8.7802362 0.032185934 -0.95609212 0
-8.7452374 -0.012758899 -0.95075119 0
-8.6852388 -0.052668698 -0.94045079 0
-8.6152391 -0.087579876 -0.93019032 0
-8.5552406 -0.12752798 -0.92489624 0
-10.610243 -0.20264333 -0.95937192 0
-10.500245 -0.2475573 -0.94904923 0
-10.425246 -0.29247007 -0.9387306 0
-13.415253 -0.43748856 -0.96773088 0
-6.1452403 -0.21726629 -0.87923419 0
-8.2002459 -0.32709253 -0.87347996 0
-13.010259 -0.57221377 -0.93180943 0
-6.1002412 -0.28715771 -0.86875355 0
-8.0652475 -0.41192004 -0.8529079 0
-12.645263 -0.69694453 -0.89598548 0
-6.0202422 -0.35201889 -0.85332179 0
-6.7852449 -0.42682022 -0.83282375 0
-6.7452455 -0.451774 -0.82766569 0
-7.820251 -0.56162733 -0.81694257 0
-7.7702513 -0.59158266 -0.81175816 0
-11.910271 -0.95645517 -0.82936525 0
-5.910243 -0.49180794 -0.83243966 0
-7.6502528 -0.67145592 -0.7962749 0
-11.620274 -1.0662704 -0.80372286 0
-6.5502477 -0.62150252 -0.79662943 0
-9.240263 -0.91136056 -0.79977536 0
-5.7502437 -0.58659679 -0.80688226 0
-7.4652548 -0.79125285 -0.77058804 0
-13.780318 -1.4785962 1.9088167 0
-11.160279 -1.2559798 -0.76267505 0
-7.370255 -0.84613878 -0.7552917 0
-6.3902488 -0.75128812 -0.77090478 0
-6.3702488 -0.76628339 -0.77082241 0
-5.6352439 -0.69141722 -0.78630519 0
-5.6152434 -0.70138061 -0.78125393 0
-13.725317 -1.7471688 0.61025101 0
-13.600317 -1.7621987 0.6103124 0
-13.670316 -1.8042158 0.29053372 0
-13.51031 -1.8231949 -0.34439406 0
-10.615284 -1.4606379 -0.71166027 0
-7.1302571 -1.0009062 -0.72450042 0
-5.5102444 -0.79124612 -0.7657975 0
-13.460312 -1.97514 -0.65864706 0
-8.4702702 -1.2657441 -0.7129705 0
-6.1552501 -0.936032 -0.73997939 0
-13.585323 -2.1113124 -0.027968138 0
-10.190288 -1.6153799 -0.67097628 0
-6.1002502 -0.98595452 -0.72974813 0
-13.245319 -2.1900635 -0.64767265 0
-6.8802586 -1.1556844 -0.6938014 0
-32.115509 -5.5323238 -1.2082747 0
-8.1202717 -1.4205079 -0.67732179 0
-5.3152432 -0.94599658 -0.73510325 0
-9.7452908 -1.7751646 -0.63535535 0
-5.9552503 -1.1007977 -0.70926404 0
-12.335321 -2.3297386 -0.58729136 0
-5.9202504 -1.1357574 -0.70412517 0
-7.8452725 -1.5403185 -0.64688194 0
-11.975323 -2.4046085 -0.56209528 0
-6.5902596 -1.3404413 -0.65808558 0
-11.780322 -2.4445314 -0.54701269 0
-6.5302596 -1.3754066 -0.6529671 0
-22.855461 -4.9102325 -0.78363669 0
-7.5902734 -1.6501669 -0.62154269 0
-5.1102419 -1.1257263 -0.69942975 0
-9.0902948 -2.0398495 -0.57953036 0
-5.6602492 -1.2855173 -0.66863132 0
-11.190324 -2.589366 -0.51171231 0
-6.3602595 -1.4902761 -0.63261342 0
-18.385426 -4.3843246 -0.57738459 0
-7.3302736 -1.7699963 -0.59122562 0
-4.9702401 -1.2155864 -0.6791662 0
-8.7552958 -2.1746938 -0.54922187 0
-5.5102487 -1.3853855 -0.64835405 0
-10.645326 -2.7192128 -0.47654864 0
-6.1802588 -1.595129 -0.60735869 0
-14.170382 -3.7235641 -0.38660774 0
-7.0902739 -1.8798883 -0.57100916 0
-5.4402485 -1.4603165 -0.63815975 0
-10.295325 -2.8041101 -0.45149788 0
-6.9902735 -1.9248376 -0.56093001 0
-5.3202472 -1.480237 -0.62317157 0
-4.8002381 -1.3454149 -0.65386558 0
-13.045376 -3.7134047 -0.33732048 0
-8.2102957 -2.3594863 -0.50399637 0
-5.9552579 -1.7299895 -0.5820992 0
-4.7502375 -1.390377 -0.64877486 0
-12.980391 -3.8358102 1.2429162 0
-30.720684 -9.1828756 -0.42165682 0
-30.610687 -9.2328587 -0.41660425 0
-12.255371 -3.728287 -0.29783884 0
-9.6303253 -2.9539714 -0.41156271 0
-7.9152946 -2.4494076 -0.48398891 0
-7.8802948 -2.4593863 -0.47899023 0
-7.8652945 -2.4743874 -0.47896865 0
-7.845295 -2.4893889 -0.47894868 0
-7.8052945 -2.4943683 -0.47397456 0
-9.3703241 -3.0139279 -0.39663848 0
-7.7452941 -2.5143499 -0.46898112 0
-5.6902561 -1.8648407 -0.55198538 0
-4.5852346 -1.5152252 -0.62360525 0
-7.6402941 -2.5543132 -0.45899925 0
-5.0152431 -1.6950116 -0.58288872 0
-9.0553236 -3.098876 -0.37673637 0
-5.5802536 -1.9247984 -0.54197085 0
-10.89036 -3.8032115 -0.2438378 0
-6.3452678 -2.2345591 -0.4957324 0
-4.9202394 -1.7499713 -0.57287216 0
-20.405548 -7.3375359 -0.19397375 0
-8.7753153 -3.1788681 -0.36186865 0
-6.2352643 -2.2795327 -0.48575136 0
-4.8552361 -1.789933 -0.5628655 0
-18.375509 -6.8424973 -0.14676106 0
-8.5803108 -3.2188423 -0.3470054 0
-6.1352606 -2.3195074 -0.47580114 0
-4.7852321 -1.8248969 -0.55288744 0
-16.105463 -6.2074575 -0.095023781 0
-8.3853054 -3.2538397 -0.33717057 0
-6.0452566 -2.3645036 -0.47083661 0
-4.7302289 -1.8648821 -0.54789615 0
-14.120423 -5.6224465 -0.052961439 0
-8.1952991 -3.2888181 -0.32234254 0
-5.9502521 -2.4044809 -0.46090201 0
-4.6752253 -1.904868 -0.54291296 0
-13.150402 -5.4124637 -0.029324412 0
-8.0302944 -3.3288367 -0.31750253 0
-6.7352672 -2.8141818 -0.38955012 0
-5.835247 -2.4494641 -0.45100263 0
-5.1052313 -2.1596582 -0.49215463 0
-4.5802193 -1.9498395 -0.53299177 0
-4.1502099 -1.7799761 -0.56366968 0
-29.555742 -12.785491 0.32737753 0
-12.070376 -5.2575417 -0.0058448315 0
-9.135314 -4.0032964 -0.17058319 0
-7.7102828 -3.4038386 -0.29786602 0
-6.520257 -2.8991797 -0.37477675 0
-6.4952559 -2.9041853 -0.37481394 0
-6.4652548 -2.909173 -0.36985132 0
-6.4452538 -2.9191785 -0.36987093 0
-6.4202528 -2.9241843 -0.36990878 0
-7.5302758 -3.4488492 -0.28809807 0
-7.4952745 -3.4538395 -0.28314671 0
-6.3552499 -2.9491835 -0.36498842 0
-5.5202312 -2.5744209 -0.42135581 0
-4.8552165 -2.2796128 -0.46743026 0
-4.3802056 -2.0697763 -0.50819921 0
-3.9801962 -1.8899173 -0.54385746 0
-8.5252914 -4.0883775 -0.14645609 0
-7.2602644 -3.5038691 -0.27351025 0
-5.3852239 -2.6144166 -0.41156533 0
-4.3102002 -2.1097705 -0.50330031 0
-3.9151907 -1.9248897 -0.53395379 0
-3.90519 -1.9348907 -0.53395665 0
-3.8901892 -1.9348922 -0.53399301 0
-20.110531 -10.09151 0.31236079 0
-10.200321 -5.1478238 0.031245008 0
-8.1602774 -4.1484404 -0.13205522 0
-6.9552507 -3.5538852 -0.2540265 0
-5.9702291 -3.0691881 -0.33562675 0
-5.2052121 -2.6894152 -0.39687833 0
-4.6151986 -2.399585 -0.44283417 0
-4.1651888 -2.1797311 -0.48356143 0
-3.7951803 -1.9998719 -0.52415681 0
-14.995415 -7.9569373 0.30388507 0
-9.6653023 -5.16295 0.040287942 0
-7.8152623 -4.1985211 -0.12270743 0
-6.6802373 -3.6089211 -0.23954692 0
-5.7652168 -3.1292033 -0.32103875 0
-5.0402012 -2.7544148 -0.38220134 0
-4.4951887 -2.4695871 -0.43308625 0
-4.0551786 -2.2447236 -0.47378573 0
-3.6851704 -2.0498412 -0.50939 0
-12.410351 -6.9522386 0.29946864 0
-9.1702824 -5.1630764 0.049282417 0
-9.1252804 -5.1680918 0.049196035 0
-9.0902786 -5.1731071 0.049109414 0
-9.0352764 -5.1731086 0.054008812 0
-8.9952745 -5.1731238 0.053908154 0
-8.9402723 -5.1681399 0.053791821 0
-8.9002705 -5.1731548 0.053704798 0
-8.8552685 -5.1731701 0.053604156 0
-8.8052673 -5.1731725 0.058503509 0
-8.7602654 -5.1731877 0.058402851 0
-8.7252636 -5.1782022 0.058315307 0
-8.6802616 -5.1782174 0.058214545 0
-8.6352596 -5.1782327 0.058113784 0
-8.6002579 -5.1882477 0.058038682 0
-8.5702553 -5.1932626 0.057950407 0
-8.5302534 -5.1982646 0.062861949 0
-8.4802513 -5.1932802 0.062748238 0
-8.4452496 -5.1932955 0.062645018 0
-8.4102478 -5.1983099 0.062556252 0
-8.3602457 -5.1983256 0.062455103 0
-8.3352442 -5.2083402 0.062378138 0
-8.2902422 -5.208343 0.067277282 0
-6.8502121 -4.3237739 -0.089933991 0
-5.9301929 -3.764075 -0.20134172 0
-5.1901774 -3.3143063 -0.28746936 0
-5.1601758 -3.3093014 -0.28254476 0
-5.1401744 -3.3143079 -0.28259692 0
-5.1301732 -3.3193142 -0.28264937 0
-5.8201861 -3.7891059 -0.19664875 0
-6.6652007 -4.3588295 -0.080444098 0
-7.9652247 -5.2334661 0.071418032 0
-18.920431 -12.481504 0.83230293 0
-27.390593 -18.137407 2.6144223 0
-3.3451343 -2.2248027 -0.47036281 0
-3.3351331 -2.2298048 -0.4703941 0
-3.3201318 -2.2298071 -0.47043642 0
-3.3201308 -2.239809 -0.4704574 0
-3.3051298 -2.2398007 -0.46549991 0
-3.2951288 -2.2448027 -0.46553192 0
-3.2801275 -2.2498052 -0.46556416 0
-3.2751267 -2.2548072 -0.46559659 0
-3.2801254 -2.2648091 -0.46561912 0
-3.2451239 -2.2548018 -0.46068302 0
-3.240123 -2.2648039 -0.46070591 0
-3.2401221 -2.274806 -0.46072921 0
-3.2301209 -2.279808 -0.46076241 0
-3.2151196 -2.2798009 -0.45580575 0
-3.2101188 -2.2848032 -0.45583948 0
-3.3451059 -2.5597506 -0.4060488 0
-4.0551157 -3.1095953 -0.31522414 0
-5.1101317 -3.9393425 -0.1639818 0
-8.2651806 -6.3935866 0.28974366 0
-11.300229 -8.7659855 1.9632431 0
-3.3101008 -2.574764 -0.40622231 0
-4.4751177 -3.4995015 -0.24487594 0
-6.7501516 -5.2939706 0.087728366 0
-25.98044 -20.461044 1.8499054 0
-3.9801066 -3.1546254 -0.31057844 0
-5.64013 -4.4892263 -0.048731595 0
-25.880424 -20.676201 1.8539937 0
-3.9301023 -3.1596348 -0.30575356 0
-4.9251156 -3.9744227 -0.15969846 0
-6.550138 -5.3090639 0.092025906 0
-9.7151814 -7.9083748 0.58037889 0
-10.925197 -8.9328928 0.95156574 0
-3.1850858 -2.6197903 -0.39675507 0
-3.1700847 -2.6247876 -0.39179876 0
-3.1600835 -2.6297913 -0.39184269 0
-3.1500821 -2.6297946 -0.39189294 0
-3.1350808 -2.6297922 -0.38694319 0
-3.1350796 -2.6398015 -0.39198157 0
-3.1150782 -2.6397994 -0.38703206 0
-3.1000769 -2.6398032 -0.38708249 0
-3.1000755 -2.6448064 -0.38712707 0
-3.0900743 -2.65481 -0.38716653 0
-3.075073 -2.6498082 -0.3822228 0
-3.0600717 -2.6548119 -0.3822681 0
-3.0700705 -2.6698208 -0.38730416 0
-3.0300691 -2.6498144 -0.37737581 0
-3.025068 -2.6598179 -0.3774164 0
-3.0100665 -2.6548216 -0.37747225 0
-3.3050687 -2.9297826 -0.33725604 0
-4.0600758 -3.6146681 -0.22166094 0
-5.1050858 -4.5594893 -0.035851151 0
-8.6551218 -7.7639189 0.55698001 0
-25.555298 -22.996838 2.7054038 0
-2.9700601 -2.6848402 -0.37769935 0
-3.2400615 -2.9348013 -0.33253291 0
-3.6150641 -3.2897632 -0.28728703 0
-3.9800665 -3.6397109 -0.22205946 0
-4.4300694 -4.069644 -0.13678253 0
-4.9650731 -4.5795636 -0.031456113 0
-5.765079 -5.3394623 0.10404131 0
-6.820087 -6.3443298 0.2846927 0
-8.2600985 -7.7141433 0.54557198 0
-11.375123 -10.673802 1.0175284 0
-2.8700469 -2.7098701 -0.36819556 0
-3.1450479 -2.9848442 -0.32806256 0
-3.455049 -3.2948136 -0.27791765 0
-3.8400507 -3.6747749 -0.21274084 0
-4.2600527 -4.0947294 -0.13255459 0
-4.7600551 -4.5946717 -0.0273377 0
-6.5600662 -6.3594918 0.28358391 0
-10.23009 -9.9541149 0.95044708 0
-3.0550382 -2.9948719 -0.31845877 0
-3.7550416 -3.6948154 -0.20815712 0
-4.6650457 -4.6097255 -0.022777349 0
-6.4000549 -6.3445811 0.28295413 0
-9.8800735 -9.8342829 0.93441224 0
-3.000031 -3.0048943 -0.31374225 0
-3.6900334 -3.7148516 -0.20850596 0
-4.5750365 -4.6197815 -0.023221493 0
-6.2400427 -6.3246698 0.28232604 0
-9.5650558 -9.7394466 0.9184109 0
-2.9500241 -3.0249188 -0.31402525 0
-3.6150255 -3.7198863 -0.20386538 0
-4.4850273 -4.6348362 -0.018668532 0
-6.0850315 -6.3097587 0.28170004 0
-9.2450399 -9.6296072 0.9074198 0
-2.8700166 -3.0099409 -0.30431959 0
-3.5500174 -3.7349215 -0.19922218 0
-4.390018 -4.6398916 -0.019118696 0
-5.9400201 -6.2998471 0.28108045 0
-8.9850245 -9.5697641 0.89146209 0
-3.1300104 -3.3599589 -0.25456187 0
-3.8700099 -4.1699486 -0.11953387 0
-4.9550095 -5.3549347 0.11049524 0
-7.00001 -7.5999155 0.52055764 0
-17.475016 -19.039846 2.0860317 0
-3.0450027 -3.3399892 -0.24988809 0
-3.8000011 -4.1899934 -0.11494014 0
-4.8499999 -5.3600001 0.11 0
-6.835 -7.5900002 0.51499999 0
-14.925 -16.635 1.845 0
-3.0150001 -3.3900001 -0.24999997 0
-3.73 -4.2049999 -0.11500001 0
-4.75 -5.375 0.11499999 0
-6.6750002 -7.585 0.51499999 0
-13.125 -14.965 1.67 0
-2.9549999 -3.395 -0.24499997 0
-3.645 -4.2049999 -0.10999998 0
-4.6399999 -5.3699999 0.11499999 0
-6.5050001 -7.5650001 0.50999999 0
-42.845001 -49.974998 7.9650002 0
-2.645 -3.095 -0.29499999 0
-3.585 -4.2150002 -0.10499999 0
-4.5599999 -5.3800001 0.11499999 0
-7.9099998 -9.3599997 0.85000002 0
-2.605 -3.105 -0.28999999 0
-3.175 -3.8 -0.18000001 0
-3.9000001 -4.6900001 -0.0049999952 0
-5.1799998 -6.25 0.28 0
-10.875 -13.165 1.475 0
-3.4749999 -4.23 -0.10499999 0
-5.0999999 -6.2399998 0.28 0
-10.46 -12.85 1.4399999 0
-2.76 -3.415 -0.23499998 0
-3.7850001 -4.6999998 0 0
-6.0250001 -7.5100002 0.505 0
-19.035 -23.805 3.125 0
-2.49 -3.125 -0.28 0
-3.3800001 -4.2600002 -0.099999994 0
-4.9299998 -6.23 0.28 0
-9.6599998 -12.25 1.37 0
-2.98 -3.8050001 -0.16999999 0
-4.1950002 -5.375 0.12 0
-7.1199999 -9.1599998 0.82000005 0
-2.6500001 -3.4349999 -0.22499999 0
-3.635 -4.7249999 0 0
-5.71 -7.4549999 0.5 0
-18.135 -23.77 3.0699999 0
-3.24 -4.2750001 -0.094999999 0
-4.6999998 -6.2249999 0.28 0
-8.79 -11.69 1.3049999 0
-2.8599999 -3.8299999 -0.16499999 0
-4 -5.3800001 0.125 0
-6.7399998 -9.0900002 0.80999994 0
-2.8099999 -3.8299999 -0.16499999 0
-3.46 -4.7399998 0.0049999952 0
-4.5250001 -6.23 0.28 0
-8.2950001 -11.455 1.27 0
-2.7550001 -3.8299999 -0.16 0
-3.855 -5.3850002 0.125 0
-6.4499998 -9.04 0.79999995 0
-2.4549999 -3.47 -0.215 0
-3.7950001 -5.375 0.125 0
-7.9850001 -11.355 1.25 0
-3.0050001 -4.3000002 -0.085000008 0
-4.3200002 -6.2049999 0.28 0
-7.8400002 -11.305 1.24 0
-2.6500001 -3.8499999 -0.155 0
-3.6900001 -5.3800001 0.13 0
-6.1399999 -8.9849997 0.78499997 0
-2.365 -3.4849999 -0.21000001 0
-3.6500001 -5.4000001 0.13 0
-12.14 -18.035 2.3099999 0
-3.605 -5.3850002 0.13 0
-11.755 -17.625 2.2550001 0
-4.105 -6.1999998 0.28 0
-20.405001 -30.870001 6.3600001 0
-2.3 -3.4949999 -0.21000001 0
-5.8600001 -8.9300003 0.77999997 0
-3.52 -5.3899999 0.13 0
-20.09 -30.844999 6.3300004 0
-2.5 -3.8499999 -0.15000001 0
-10.87 -16.795 2.145 0
-4.665 -7.25 0.48000002 0
-19.76 -30.790001 7.1750002 0
-3.0450001 -4.7649999 0.015000015 0
-16.514999 -25.885 3.865 0
-2.2249999 -3.4949999 -0.20500001 0
-6.9699998 -10.985 1.1900001 0
-3.9000001 -6.1849999 0.28 0
-19.75 -31.415001 6.375 0
-2.7049999 -4.3150001 -0.074999988 0
-9.9399996 -15.91 2.03 0
-4.4850001 -7.2199998 0.47499999 0
-19.469999 -31.42 7.2450004 0
-2.9449999 -4.77 0.020000011 0
-15.62 -25.365 3.76 0
-2.155 -3.51 -0.19999999 0
-5.3850002 -8.7950001 0.75999999 0
-3.29 -5.4050002 0.13500001 0
-18.795 -30.969999 6.23 0
-2.335 -3.865 -0.13999999 0
-4.3400002 -7.1999998 0.47499999 0
-2.585 -4.3200002 -0.069999993 0
-6.4349999 -10.785 1.16 0
-3.2 -5.4000001 0.13500001 0
-8.7550001 -14.82 1.885 0
-3.1700001 -5.4000001 0.13500001 0
-8.5649996 -14.65 1.865 0
-3.135 -5.4050002 0.13500001 0
-8.4049997 -14.525 1.845 0
-2.7449999 -4.7800002 0.025000006 0
-4.9549999 -8.6599998 0.745 0
-2.2049999 -3.885 -0.13499999 0
-3.4849999 -6.1599998 0.28 0
-8.0150003 -14.23 1.8049999 0
-2.6700001 -4.7750001 0.025000006 0
-4.7950001 -8.6000004 0.74000001 0
-2.145 -3.8800001 -0.13499999 0
-3.4000001 -6.1700001 0.28 0
-7.6700001 -13.985 1.77 0
-2.605 -4.7849998 0.025000006 0
-4.6399999 -8.5500002 0.73500001 0
-2.0899999 -3.8800001 -0.13 0
-3.3 -6.1500001 0.28 0
-7.3600001 -13.78 1.74 0
-2.53 -4.7750001 0.030000001 0
-4.4899998 -8.5050001 0.73000002 0
-2.04 -3.8900001 -0.13 0
-3.2 -6.1350002 0.28 0
-7.0799999 -13.63 1.7149999 0
-2.46 -4.77 0.030000001 0
-4.3499999 -8.4750004 0.72500002 0
-2.2049999 -4.3249998 -0.060000002 0
-4.2950001 -8.46 0.72000003 0
-2.175 -4.3200002 -0.060000002 0
-4.2399998 -8.4499998 0.72000003 0
-1.9349999 -3.885 -0.125 0
-3.0450001 -6.145 0.28 0
-6.5949998 -13.355 1.67 0
-2.335 -4.7649999 0.030000001 0
-4.0999999 -8.4099998 0.71500003 0
-1.885 -3.8900001 -0.125 0
-3.4000001 -7.0549998 0.46000001 0
-13.68 -28.48 6.23 0
-2.0799999 -4.3449998 -0.055000007 0
-6.2750001 -13.16 1.64 0
-13.065 -27.5 7.4950004 0
-3.335 -7.0450001 0.46000001 0
-2.2449999 -4.77 0.034999996 0
-9.3100004 -19.855 2.8399999 0
-3.8900001 -8.3599997 0.71000004 0
-12.63 -27.235001 6.6600003 0
-2.49 -5.3850002 0.14 0
-1.79 -3.9000001 -0.12 0
-4.6700001 -10.205 1.0650001 0
-2.78 -6.1199999 0.28 0
-12.815 -28.290001 6.1300001 0
-1.9450001 -4.3099999 -0.050000012 0
-5.8049998 -12.915 1.6 0
-12.175 -27.205 7.3400002 0
-3.135 -7.0250001 0.46000001 0
-2.1099999 -4.7649999 0.034999996 0
-8.1400003 -18.445 2.635 0
-12.19 -27.73 8.21 0
-4.4349999 -10.115 1.05 0
-2.6600001 -6.1100001 0.28 0
-12.28 -28.315001 6.0950003 0
-1.865 -4.3200002 -0.050000012 0
-12.26 -28.465 5.3700004 0
-1.6799999 -3.915 -0.11500001 0
-12.22 -28.555 4.645 0
-1.67 -3.915 -0.11500001 0
-5.4099998 -12.735 1.5699999 0
-11.93 -28.18 7.5300002 0
-2.95 -6.9949999 0.45499998 0
-11.97 -28.48 6.1000004 0
-1.8150001 -4.3400002 -0.050000012 0
-4.1700001 -10.01 1.04 0
-2.52 -6.0949998 0.28 0
-1.605 -3.915 -0.11500001 0
-2.8499999 -6.98 0.45499998 0
-1.9299999 -4.7649999 0.040000007 0
-6.9050002 -17.105 2.4349999 0
-2.7950001 -6.98 0.45499998 0
-11.595 -29.055 6.1750002 0
-1.72 -4.335 -0.044999987 0
-3.9300001 -9.9399996 1.025 0
-1.87 -4.7649999 0.040000007 0
-3.8699999 -9.915 1.025 0
-2.075 -5.3600001 0.145 0
-6.4450002 -16.719999 2.3699999 0
-2.0450001 -5.355 0.145 0
-3.75 -9.875 1.02 0
-1.63 -4.335 -0.044999987 0
-2.605 -6.9650002 0.45499998 0
-6.145 -16.504999 2.335 0
-2.24 -6.0749998 0.28 0
-6.0349998 -16.434999 2.325 0
-2.21 -6.0700002 0.28 0
-5.9200001 -16.35 2.3099999 0
-2.175 -6.0700002 0.28 0
-5.8049998 -16.264999 2.2950001 0
-2.1500001 -6.0799999 0.28 0
-5.6999998 -16.195 2.2850001 0
-2.105 -6.04 0.28 0
-5.5900002 -16.115 2.27 0
-2.385 -6.9400001 0.44999999 0
-21.440001 -62.700001 11.165 0
-1.48 -4.3449998 -0.039999992 0
-2.75 -8.1199999 0.68000001 0
-21.165001 -62.759998 12.759999 0
-1.595 -4.75 0.045000002 0
-3.25 -9.7349997 1 0
-1.765 -5.3400002 0.15000001 0
-4.0100002 -12.195 1.48 0
-2.2550001 -6.9099998 0.44999999 0
-1.535 -4.7449999 0.045000002 0
-3.915 -12.17 1.475 0
-2.2 -6.9050002 0.44999999 0
-1.365 -4.3400002 -0.039999992 0
-3.0350001 -9.6750002 0.99000001 0
-1.655 -5.3299999 0.15000001 0
-3.7249999 -12.07 1.4599999 0
-1.84 -6.0100002 0.28 0
-4.7350001 -15.575 2.1800001 0
-1.8150001 -6.0250001 0.28 0
-6.3000002 -21.045 3.3699999 0
-1.17 -3.9349999 -0.10499999 0
-2.04 -6.8850002 0.44499999 0
-6.1799998 -20.99 3.355 0
-1.155 -3.9449999 -0.10499999 0
-2 -6.8699999 0.44499999 0
-6.0650001 -20.945 3.345 0
-1.135 -3.9349999 -0.099999994 0
-2.3099999 -8.0600004 0.66999996 0
-1.345 -4.7449999 0.049999997 0
-2.6949999 -9.5799999 0.97500002 0
-1.3200001 -4.7399998 0.049999997 0
-3.3 -11.915 1.4349999 0
-6.1900001 -22.475 5.8050003 0
-1.64 -5.9899998 0.28 0
-5.6599998 -20.780001 3.3050001 0
-1.0650001 -3.9300001 -0.099999994 0
-2.165 -8.0450001 0.66999996 0
-1.26 -4.7399998 0.049999997 0
-3.1500001 -11.89 1.4299999 0
-5.9450002 -22.57 5.8100004 0
-1.5650001 -5.9899998 0.28 0
-1.125 -4.3600001 -0.034999996 0
-3.0550001 -11.875 1.425 0
-1.735 -6.8249998 0.44499999 0
-1.1950001 -4.7449999 0.049999997 0
-5.1550002 -20.58 3.26 0
-0.98000002 -3.9300001 -0.099999994 0
-2.9300001 -11.835 1.42 0
-5.5599999 -22.559999 6.3600001 0
-1.96 -8.0050001 0.66499996 0
-5.4899998 -22.514999 5.77 0
-1.65 -6.8150001 0.44499999 0
-5.7550001 -23.855 5.4950004 0
-1.27 -5.2849998 0.155 0
-4.8800001 -20.465 3.2349999 0
-5.46 -23.025 7.0650001 0
-2.78 -11.8 1.41 0
-5.2350001 -22.325001 6.2850003 0
-1.86 -7.9949999 0.66499996 0
-1.84 -7.9899998 0.65999997 0
-5.335 -23.24 6.52 0
-2.6900001 -11.77 1.405 0
-0.89499998 -3.9449999 -0.094999999 0
-4.605 -20.35 3.21 0
-5.1350002 -22.809999 7.5750003 0
-13.73 -61.200001 12.094999 0
-1.1799999 -5.2950001 0.155 0
-5.1199999 -23.045 5.3000002 0
-1.3200001 -5.9699998 0.28 0
-1.745 -7.9749999 0.65999997 0
-1.725 -7.9699998 0.65999997 0
-0.85000002 -3.9400001 -0.094999999 0
-3.1500001 -14.675 2.0350001 0
-0.92500001 -4.335 -0.030000001 0
-4.8400002 -22.934999 8.1999998 0
-4.835 -22.985001 5.27 0
-1.415 -6.7750001 0.44 0
-1.95 -9.4300003 0.95500004 0
-4.6149998 -22.415001 6.27 0
-1.9299999 -9.4350004 0.95500004 0
-1.91 -9.4350004 0.95500004 0
-4.5999999 -22.865 6.3850002 0
-2.3299999 -11.655 1.39 0
-0.78500003 -3.9400001 -0.094999999 0
-3.98 -20.094999 3.1600001 0
-0.85000002 -4.335 -0.030000001 0
-4.6199999 -23.594999 4.23 0
-4.5100002 -23.205 7.6550002 0
-0.91000003 -4.7399998 0.055000007 0
-4.3499999 -22.934999 7.5650001 0
-11.9 -63.060001 10.825 0
-4.2950001 -22.940001 7.5650001 0
-0.80500001 -4.355 -0.030000001 0
-3.6700001 -19.959999 3.1299999 0
-4.1999998 -23.025 6.9900002 0
-2.6099999 -14.385 1.985 0
-4.1900001 -23.254999 7.0550003 0
-2.575 -14.375 1.985 0
-4.0650001 -22.875 6.9400001 0
-2.0350001 -11.535 1.375 0
-0.69 -3.9349999 -0.094999999 0
-1.635 -9.4049997 0.95000005 0
-3.9549999 -22.879999 6.3600001 0
-1.355 -7.895 0.65499997 0
-1.14 -6.73 0.44 0
-0.88 -5.2750001 0.155 0
-0.70999998 -4.3449998 -0.030000001 0
-1.865 -11.485 1.365 0
-0.94999999 -5.9400001 0.28 0
-0.68000001 -4.3449998 -0.030000001 0
-1.455 -9.3599997 0.94000006 0
-1.025 -6.71 0.44 0
-0.70999998 -4.73 0.055000007 0
-2.1199999 -14.275 1.9649999 0
-1.15 -7.8699999 0.64999998 0
-0.755 -5.27 0.155 0
-2.7750001 -19.555 3.0550001 0
-3.1900001 -22.700001 6.855 0
-1.3 -9.3450003 0.94000006 0
-0.71499997 -5.27 0.155 0
-1.535 -11.38 1.35 0
-0.69499999 -5.27 0.155 0
-1.475 -11.36 1.35 0
-0.67000002 -5.2600002 0.155 0
-1.42 -11.34 1.345 0
-0.64499998 -5.2649999 0.155 0
-1.37 -11.325 1.345 0
-0.62 -5.27 0.155 0
-1.3150001 -11.32 1.345 0
-0.59500003 -5.27 0.155 0
-1.265 -11.31 1.3399999 0
-0.56999999 -5.27 0.155 0
-1.51 -14.125 1.9399999 0
-0.69499999 -6.6700001 0.435 0
-0.44 -4.3249998 -0.025000006 0
-1.415 -14.09 1.9349999 0
-0.90499997 -9.2600002 0.92999995 0
-1.91 -19.82 4.5100002 0
-0.495 -5.2550001 0.155 0
-1.0549999 -11.295 1.3399999 0
-0.47499999 -5.25 0.16 0
-1 -11.28 1.3349999 0
-0.44999999 -5.2550001 0.16 0
-0.94499999 -11.275 1.3349999 0
-0.42500001 -5.2550001 0.16 0
-1.115 -14.03 1.925 0
-0.50999999 -6.665 0.435 0
-1.66 -22.02 3.9100001 0
-0.31999999 -4.3299999 -0.025000006 0
-0.56 -7.7550001 0.64499998 0
-0.33000001 -4.7199998 0.060000002 0
-0.625 -9.2049999 0.92499995 0
-0.30500001 -4.7199998 0.060000002 0
-0.58499998 -9.21 0.92499995 0
-0.315 -5.25 0.16 0
-0.82499999 -14 1.92 0
-0.375 -6.6599998 0.435 0
-1.1900001 -21.695 3.8499999 0
-0.23 -4.3249998 -0.025000006 0
-0.40000001 -7.7399998 0.63999999 0
-2.8900001 -57.290001 11.09 0
-0.25999999 -5.25 0.16 0
-0.87 -18.190001 2.8399999 0
-0.41499999 -9.1949997 0.92499995 0
-0.25 -5.8649998 0.28 0
-0.84500003 -20.5 3.6499999 0
-0.17 -4.3249998 -0.025000006 0
-0.43000001 -11.23 1.3299999 0
-0.23999999 -6.6500001 0.435 0
-0.155 -4.7049999 0.060000002 0
-0.28999999 -9.1599998 0.91999996 0
-0.15000001 -5.2350001 0.16 0
-0.30000001 -11.12 1.3199999 0
-0.14 -5.8600001 0.28 0
-0.405 -17.955 2.8050001 0
-0.155 -7.7199998 0.63999999 0
-0.079999998 -4.6999998 0.060000002 0
-0.17 -11.07 1.3149999 0
-0.075000003 -5.8699999 0.28 0
-0.2 -17.809999 2.7850001 0
-0.064999998 -7.7150002 0.63999999 0
-0.025 -4.71 0.060000002 0
-0.045000002 -11.065 1.3099999 0
-0.0099999998 -5.855 0.28 0
0 -17.684999 2.7649999 0
0.02 -7.6999998 0.63999999 0
0.025 -4.6950002 0.060000002 0
0.079999998 -11.015 1.3099999 0
0.059999999 -5.8699999 0.28 0
0.2 -17.594999 2.7549999 0
0.11 -7.6849999 0.63999999 0
0.079999998 -4.6849999 0.060000002 0
0.205 -11 1.3049999 0
0.125 -5.8850002 0.28 0
0.40000001 -17.495001 2.74 0
0.19499999 -7.6849999 0.63999999 0
0.13 -4.6849999 0.060000002 0
0.32499999 -10.92 1.3 0
0.19 -5.8449998 0.28 0
0.59500003 -17.43 2.73 0
0.285 -7.6799998 0.63999999 0
0.185 -4.6900001 0.060000002 0
0.44999999 -10.885 1.295 0
0.255 -5.8249998 0.28 0
0.78500003 -17.299999 2.7149999 0
0.37 -7.665 0.63999999 0
0.23999999 -4.6799998 0.060000002 0
0.56999999 -10.875 1.295 0
0.32499999 -5.8499999 0.28 0
0.98000002 -17.225 2.7049999 0
0.45500001 -7.6599998 0.63999999 0
0.29499999 -4.6849999 0.060000002 0
0.69499999 -10.87 1.295 0
0.38999999 -5.855 0.28 0
1.17 -17.155001 2.6949999 0
0.54500002 -7.6500001 0.63999999 0
0.345 -4.6799998 0.060000002 0
0.815 -10.845 1.295 0
0.45500001 -5.8249998 0.28 0
1.36 -17.084999 2.6900001 0
0.63 -7.6500001 0.63999999 0
0.40000001 -4.665 0.060000002 0
0.94 -10.835 1.295 0
0.52499998 -5.835 0.28 0
1.55 -17.02 2.6800001 0
0.72000003 -7.6399999 0.63999999 0
0.44999999 -4.665 0.060000002 0
1.0650001 -10.835 1.295 0
0.66500002 -6.5599999 0.435 0
1.985 -19.415001 3.4849999 0
0.44499999 -4.29 -0.020000011 0
0.94999999 -9.0299997 0.91499996 0
0.56 -5.1750002 0.16 0
1.47 -13.38 1.85 0
0.74000001 -6.5650001 0.435 0
2.21 -19.395 3.4849999 0
0.49000001 -4.2649999 -0.020000011 0
1.0549999 -9.0249996 0.91499996 0
0.62 -5.1799998 0.16 0
1.62 -13.365 1.85 0
0.815 -6.5599999 0.435 0
2.4400001 -19.459999 3.5 0
0.54000002 -4.2750001 -0.020000011 0
1.385 -10.82 1.3 0
0.76499999 -5.8200002 0.28 0
2.2349999 -16.855 2.6700001 0
1.03 -7.6149998 0.63999999 0
0.63999999 -4.645 0.060000002 0
1.51 -10.81 1.3 0
0.82999998 -5.8049998 0.28 0
2.415 -16.764999 2.6600001 0
1.12 -7.6149998 0.63999999 0
0.69499999 -4.6350002 0.060000002 0
1.63 -10.79 1.3 0
0.89499998 -5.8000002 0.28 0
2.595 -16.674999 2.6499999 0
1.205 -7.605 0.63999999 0
0.75 -4.6350002 0.060000002 0
1.755 -10.775 1.3 0
0.95999998 -5.7750001 0.28 0
3.1500001 -18.825001 3.415 0
0.71499997 -4.2449999 -0.020000011 0
1.835 -10.77 1.3 0
3.0450001 -17.754999 4.5500002 0
1.13 -6.5349998 0.435 0
1.01 -5.7649999 0.28 0
0.81999999 -4.6149998 0.060000002 0
2.385 -13.3 1.86 0
1.385 -7.5999999 0.63999999 0
