# .PCD v0.7 - Point Cloud Data file format
VERSION 0.7
FIELDS x y z intensity
SIZE 4 4 4 4
TYPE F F F F
COUNT 1 1 1 1
WIDTH 1420
HEIGHT 1
VIEWPOINT 0 0 0 1 0 0 0
POINTS 1420
DATA ascii
11.38958 -7.7222466 -0.059428036 0
13.253787 -8.9888744 2.5131142 0
4.1191063 -2.6759737 -0.66424859 0
4.5466127 -2.9573123 -0.62977791 0
6.8405342 -4.5021324 -0.50279164 0
10.236076 -6.7822518 -0.31222084 0
13.901535 -9.2462311 1.8180213 0
13.321932 -8.8137913 2.5089693 0
4.1636214 -2.6359799 -0.66400254 0
5.9190369 -3.7956159 -0.55621028 0
10.320184 -6.7019129 -0.31174561 0
14.020358 -9.1406336 1.8236564 0
14.089341 -9.1539917 3.0237288 0
4.6308227 -2.8922048 -0.63435805 0
5.1889386 -3.2424021 -0.59498107 0
5.203866 -3.2373536 -0.59493291 0
4.6353822 -2.8524301 -0.62917507 0
4.6603603 -2.8522732 -0.63413572 0
5.2284746 -3.202373 -0.59974265 0
6.0228758 -3.6954644 -0.56060517 0
6.0276675 -3.6755099 -0.56051576 0
6.0626864 -3.6802688 -0.5654788 0
6.0423403 -3.6455557 -0.56036437 0
5.2778459 -3.1473587 -0.59942925 0
5.2927742 -3.1423111 -0.59938109 0
4.724484 -2.7773688 -0.63370347 0
4.2768641 -2.486342 -0.66815794 0
14.22823 -8.5643282 2.9964497 0
11.746748 -6.9818811 -0.05571118 0
10.695853 -6.3055415 -0.314468 0
7.1364608 -4.1367726 -0.50574839 0
5.3617549 -3.0523849 -0.59888315 0
4.3412099 -2.4313273 -0.67281723 0
10.789715 -6.2002382 -0.31387261 0
7.2107248 -4.0715771 -0.50535369 0
5.406137 -2.9974072 -0.60357559 0
4.3706455 -2.381479 -0.67255545 0
10.903583 -6.0947471 -0.31825867 0
7.2749071 -3.996459 -0.50993681 0
5.4505172 -2.9424448 -0.60326898 0
4.405128 -2.336585 -0.67230582 0
11.017541 -5.9992728 -0.31767783 0
7.3139963 -3.9115953 -0.50451398 0
5.4898553 -2.8825293 -0.60295212 0
4.4396172 -2.2916772 -0.67705655 0
11.131461 -5.8987908 -0.32208094 0
7.3681412 -3.8315713 -0.50909317 0
5.5442877 -2.8324683 -0.60765243 0
4.4740591 -2.2417886 -0.67679203 0
11.235293 -5.7884159 -0.32146397 0
7.4273291 -3.7565188 -0.50868452 0
5.5785866 -2.7676005 -0.60732627 0
4.5085473 -2.1968992 -0.67654407 0
11.334136 -5.6780734 -0.32585296 0
7.4915195 -3.6814265 -0.50827146 0
5.6079316 -2.7077801 -0.60702121 0
4.5329933 -2.1471014 -0.67629063 0
11.41289 -5.557929 -0.32523134 0
7.5507183 -3.6063633 -0.51286483 0
5.6623278 -2.6527228 -0.61170828 0
4.5624413 -2.0972586 -0.6760335 0
12.96271 -6.1506929 -0.065388381 0
11.506351 -5.4077668 -0.32447079 0
9.2214708 -4.282516 -0.44318637 0
7.6094646 -3.4865136 -0.51227415 0
9.2511005 -4.2474608 -0.44299355 0
12.298137 -5.6571426 -0.044326007 0
12.292485 -5.6232686 0.27081034 0
43.149128 -19.95879 0.25703695 0
43.804573 -20.146723 1.37723 0
12.365912 -5.5658641 1.2211715 0
43.672771 -19.834919 0.25829509 0
13.199732 -5.8598919 -0.063841462 0
11.658502 -5.1276512 -0.32308671 0
11.673248 -5.1026325 -0.32296208 0
11.687994 -5.0776148 -0.32283732 0
7.7374239 -3.2915385 -0.5112741 0
6.7434549 -2.8350554 -0.58584762 0
6.7432504 -2.8151636 -0.58076692 0
5.8295932 -2.398092 -0.61538827 0
5.1970606 -2.1085708 -0.65012193 0
4.7151337 -1.8877363 -0.68491709 0
44.60664 -18.818043 1.3887827 0
13.235708 -5.4509711 -0.062109053 0
9.5672188 -3.8717148 -0.45098302 0
6.8170538 -2.700243 -0.58518362 0
5.2512579 -2.0336866 -0.65472949 0
13.319264 -5.305831 -0.061399817 0
9.6362009 -3.7716331 -0.45047399 0
6.8613214 -2.6303236 -0.58482909 0
5.2806697 -1.9788671 -0.65445805 0
13.558382 -5.2243495 -0.065743476 0
9.7102242 -3.6765227 -0.44999233 0
6.9155927 -2.5603118 -0.58947587 0
5.3200865 -1.9239501 -0.65918338 0
13.225565 -4.9228554 -0.055019468 0
9.7741699 -3.571491 -0.45449278 0
6.9598188 -2.4854059 -0.58911848 0
5.3544998 -1.8690956 -0.65891421 0
13.559946 -4.870573 -0.059360057 0
9.8832912 -3.4860721 -0.4590067 0
6.9990487 -2.4105432 -0.58876777 0
5.3939161 -1.8141975 -0.65864074 0
13.347623 -4.6230173 -0.053685814 0
9.9522848 -3.3860164 -0.45851913 0
7.0583301 -2.3404956 -0.59341133 0
5.4333396 -1.7592883 -0.66336751 0
4.9317031 -1.5685627 -0.69831336 0
42.260708 -14.277728 0.27825055 0
13.405538 -4.4083724 -0.052772373 0
12.086642 -3.928968 -0.31771311 0
13.575377 -4.3971701 -0.052498281 0
43.003914 -14.102375 0.27992371 0
43.34779 -14.112812 1.3403544 0
42.468212 -13.718549 2.3606851 0
4.9908643 -1.4887214 -0.70791435 0
4.9907537 -1.4788237 -0.70287287 0
6.1988959 -1.8538368 -0.63268268 0
8.3395281 -2.5210056 -0.53735614 0
10.179255 -3.0806749 -0.46702519 0
10.194057 -3.0606575 -0.46692738 0
12.158937 -3.6495361 -0.31153682 0
12.163651 -3.6196127 -0.31141672 0
13.611901 -4.033205 -0.051052243 0
42.516666 -12.764236 0.28434941 0
42.630993 -12.693514 0.28476876 0
43.226624 -12.773716 0.2852633 0
43.511372 -12.751554 0.28572497 0
14.031397 -3.9902382 -0.06032443 0
14.136318 -3.9844749 -0.060163826 0
14.135989 -3.949605 -0.060031027 0
14.025412 -3.8856637 -0.059933394 0
10.346529 -2.8006597 -0.47072563 0
7.3492413 -1.935657 -0.61143351 0
5.6500912 -1.4448828 -0.68183315 0
13.89348 -3.6774101 -0.054319948 0
10.405467 -2.6907084 -0.47022781 0
7.3934541 -1.8557673 -0.61106944 0
5.6744428 -1.3801243 -0.68155205 0
13.661346 -3.4450078 -0.043752313 0
10.474458 -2.585664 -0.47473404 0
7.4276757 -1.7759514 -0.61571729 0
5.7188425 -1.3201869 -0.68626344 0
14.025608 -3.372541 -0.052996248 0
10.528364 -2.4707611 -0.47423014 0
10.543171 -2.450747 -0.47413364 0
10.562943 -2.4256773 -0.47901717 0
10.58779 -2.4105797 -0.47892377 0
12.391035 -2.8160846 -0.31306514 0
12.390753 -2.7862191 -0.30795375 0
10.587049 -2.3309166 -0.47862867 0
10.606856 -2.3108637 -0.47852638 0
12.419967 -2.7013164 -0.31259999 0
12.429731 -2.6763527 -0.31249192 0
14.167441 -3.0327272 -0.051541656 0
45.710854 -9.9560022 0.29900968 0
45.758831 -9.8689537 1.3844057 0
46.141186 -9.8623362 3.5999525 0
5.230885 -1.0005715 -0.7256875 0
5.7967653 -1.1110516 -0.6903547 0
6.5428882 -1.2500374 -0.65489817 0
6.5477858 -1.2400901 -0.65485013 0
6.5526414 -1.2251431 -0.6547879 0
6.5725441 -1.215057 -0.65972257 0
6.567359 -1.1951953 -0.65965736 0
6.5822563 -1.1851652 -0.65959787 0
6.5871129 -1.1702183 -0.65953577 0
6.591969 -1.1552716 -0.65947378 0
6.6018257 -1.1402833 -0.65940595 0
5.8605471 -0.98641253 -0.69480002 0
5.2745075 -0.86126542 -0.72510123 0
5.3044534 -0.85609174 -0.73004079 0
5.3043118 -0.84118092 -0.72998714 0
12.574538 -2.1125171 -0.31022188 0
9.0343208 -1.4611095 -0.57242191 0
6.6657715 -1.0304924 -0.66391015 0
5.3137302 -0.78154558 -0.72975016 0
12.608265 -1.9728343 -0.30966654 0
9.1084394 -1.366007 -0.57697761 0
6.6950674 -0.95570594 -0.66859663 0
5.3331504 -0.72182608 -0.72950268 0
12.661999 -1.8329866 -0.30909035 0
9.1575584 -1.271125 -0.57656419 0
6.7494078 -0.88571608 -0.67326856 0
5.3525796 -0.66209394 -0.73425615 0
12.695738 -1.6933078 -0.30853954 0
9.1866055 -1.1663973 -0.58114779 0
6.7837095 -0.81089461 -0.67795086 0
5.3870511 -0.60724169 -0.73900628 0
14.81649 -1.8272752 -0.056300819 0
12.724178 -1.5187902 -0.30787745 0
11.102388 -1.2816293 -0.49410513 0
9.2202892 -1.0218539 -0.58058226 0
7.9638863 -0.84700513 -0.65156269 0
7.9687467 -0.83206505 -0.65150011 0
7.9735661 -0.81212783 -0.65142345 0
6.8673654 -0.66613162 -0.68731463 0
6.8772259 -0.65114617 -0.68724799 0
6.8870873 -0.63616085 -0.68718147 0
6.8869491 -0.62125689 -0.68712699 0
6.0210505 -0.51332778 -0.70784652 0
6.0710044 -0.50798619 -0.71776032 0
6.0758667 -0.49303803 -0.71770132 0
6.0807295 -0.47809002 -0.71764243 0
6.0806327 -0.46818238 -0.71760333 0
5.4349794 -0.38843396 -0.74314547 0
41.836117 -3.6319437 0.31666845 0
44.07579 -3.7418799 1.3441324 0
42.76289 -3.5404031 2.3181825 0
5.4495535 -0.34367299 -0.74296165 0
5.4544172 -0.32872242 -0.74290407 0
6.1197195 -0.36849508 -0.7221998 0
6.1196237 -0.35858762 -0.72216105 0
6.1144872 -0.34372067 -0.72211492 0
6.1193509 -0.32877305 -0.72205651 0
6.1242146 -0.31382498 -0.72199821 0
6.1190796 -0.298958 -0.7219522 0
6.1539888 -0.28875518 -0.72687042 0
6.0838027 -0.26943853 -0.71689153 0
5.4734025 -0.21935694 -0.74748683 0
42.455139 -2.32039 0.32196134 0
42.594425 -2.2345188 0.32243231 0
42.378525 -2.1264975 0.32252896 0
12.99061 -0.54068941 -0.31409755 0
9.5392523 -0.34269294 -0.60277212 0
8.1335554 -0.25389358 -0.66424096 0
9.5538607 -0.29778838 -0.60259962 0
13.019582 -0.42093956 -0.31365064 0
43.454105 -1.5893759 0.32570714 0
13.952932 -0.41209534 0.94257319 0
5.5071683 -0.085051715 -0.75196719 0
7.0324421 -0.12309619 -0.70017576 0
9.6129513 -0.19283684 -0.60716105 0
13.058349 -0.27622268 -0.31810412 0
42.864864 -1.0753332 0.32669914 0
45.078316 -1.0407405 1.3746078 0
45.077496 -0.94100273 1.3749434 0
45.446735 -0.84834486 1.3857193 0
15.047129 -0.16669841 -0.055226773 0
13.111863 -0.10152151 -0.31744072 0
11.60163 -0.048111133 -0.51916134 0
9.6912737 0.001840369 -0.61139512 0
8.2509851 0.040459763 -0.67307699 0
6.2157083 0.074355438 -0.73052025 0
15.335155 0.069692619 -0.059065938 0
11.645282 0.11155582 -0.5235672 0
8.2951698 0.13531683 -0.67769885 0
6.2300935 0.14402196 -0.73526204 0
15.273702 0.24355614 -0.058561653 0
11.654148 0.24605012 -0.52310586 0
8.3293591 0.230095 -0.68233526 0
6.2544818 0.21376666 -0.73999214 0
15.027256 0.41594839 -0.053299993 0
11.688058 0.37573871 -0.52262759 0
8.3635521 0.32486945 -0.68697286 0
6.2638669 0.28337705 -0.73974252 0
15.160851 0.58635491 -0.05256629 0
11.726941 0.51048112 -0.52713239 0
8.3877506 0.41956645 -0.69162524 0
6.2882223 0.35812008 -0.74446189 0
15.254383 0.76645416 -0.056860089 0
11.80079 0.65049505 -0.53158069 0
8.401947 0.51416826 -0.69129193 0
7.1772413 0.47454783 -0.71795952 0
6.3224907 0.44284433 -0.74913299 0
6.3323679 0.45784196 -0.75407064 0
6.3372388 0.47278732 -0.75401497 0
6.3371105 0.48769364 -0.75396597 0
5.6573091 0.46236071 -0.7799021 0
47.759003 3.2397406 1.4569899 0
15.28126 1.1502324 -0.055579185 0
11.883336 0.94987351 -0.53549933 0
8.4251537 0.7282452 -0.69556069 0
7.1907196 0.65360463 -0.72235048 0
5.6565285 0.55172402 -0.77960563 0
13.456035 1.2109866 -0.3326793 0
9.9333525 0.94929844 -0.63795018 0
8.4692039 0.84298831 -0.70012951 0
7.189919 0.74802071 -0.72204065 0
6.3653674 0.69162601 -0.75825834 0
5.6757598 0.64125741 -0.78428519 0
46.807808 4.6786861 1.4403358 0
46.831924 4.7936087 1.4407226 0
48.176434 5.051518 0.35321704 0
15.106896 1.6917887 -0.049070746 0
13.553202 1.5653975 -0.33643219 0
11.979517 1.42366 -0.54386294 0
10.066056 1.23406 -0.65187359 0
8.5272083 1.0872356 -0.70928073 0
7.2432275 0.95229727 -0.73132181 0
5.699492 0.79046059 -0.7887795 0
13.611465 1.7849907 -0.34068915 0
10.124858 1.3838694 -0.6563462 0
7.2475333 1.0368583 -0.736058 0
5.7339158 0.86029637 -0.79852009 0
13.645167 1.9496256 -0.34015486 0
12.076792 1.7680185 -0.55270255 0
8.6004038 1.311703 -0.72350597 0
7.2566738 1.1413438 -0.73573029 0
6.397541 1.0297651 -0.77215791 0
5.7381649 0.94970804 -0.80323887 0
14.996529 2.3733399 -0.047167808 0
13.703143 2.2090847 -0.34431085 0
12.149962 2.0026577 -0.56191242 0
10.222137 1.7281096 -0.67019308 0
10.23194 1.7530743 -0.67010653 0
10.231744 1.7779627 -0.67003381 0
8.6635771 1.5410733 -0.73274016 0
7.2901454 1.3305528 -0.74511909 0
7.2900233 1.3454546 -0.74507391 0
6.3910632 1.208593 -0.77162826 0
5.7418046 1.1136595 -0.80774033 0
5.7317138 1.1234798 -0.80272293 0
5.7365975 1.1384393 -0.80767238 0
45.565498 8.4921227 0.35994664 0
45.43988 8.5759029 0.36002272 0
14.912345 2.9156208 -0.045695752 0
13.394591 2.6647272 -0.33338049 0
10.264299 2.0918002 -0.67907286 0
8.7114229 1.8151146 -0.74187505 0
7.3433261 1.5597248 -0.75937366 0
6.399581 1.3925599 -0.78107417 0
5.7205315 1.2674104 -0.80730891 0
46.601063 9.777276 0.36492851 0
14.89993 3.2343743 -0.049802184 0
14.869737 3.2590053 -0.044769913 0
14.794588 3.2783086 -0.04481259 0
14.844249 3.3235524 -0.044619769 0
14.898916 3.3688459 -0.049420029 0
14.868655 3.4034896 -0.049363703 0
14.858431 3.4332836 -0.049291939 0
14.783278 3.4525788 -0.044335872 0
13.131177 3.1107533 -0.32245114 0
13.086028 3.1302938 -0.3224546 0
13.115727 3.1703939 -0.32230392 0
13.21032 3.2259912 -0.32702532 0
13.145211 3.2403822 -0.32706943 0
13.120025 3.2650719 -0.32703307 0
13.049871 3.2844114 -0.32207224 0
11.917013 3.0364027 -0.55424547 0
10.33489 2.6698227 -0.69233549 0
8.802599 2.3134689 -0.76533282 0
7.3551369 1.9676015 -0.77318835 0
6.3618851 1.7301385 -0.78514731 0
14.744657 3.9404967 -0.048029363 0
11.571175 3.1429641 -0.53440106 0
8.8315821 2.448072 -0.7699188 0
6.3962374 1.8149509 -0.79486275 0
14.703413 4.1095471 -0.047620684 0
11.3805 3.2309494 -0.52440941 0
8.8507242 2.5627055 -0.7745769 0
6.3956246 1.8944916 -0.79964137 0
14.747027 4.2992268 -0.047046393 0
11.369468 3.3702939 -0.52404439 0
10.451459 3.1338627 -0.71590281 0
10.421343 3.1485174 -0.71090198 0
10.441128 3.1785641 -0.71579373 0
10.440907 3.2084513 -0.71571422 0
8.8442755 2.7567315 -0.77905405 0
7.3624101 2.3257363 -0.78718281 0
7.36726 2.345674 -0.78712201 0
7.3721094 2.365612 -0.78706133 0
8.8386526 2.8412831 -0.7838316 0
11.14293 3.5774562 -0.51378453 0
14.803716 4.7581062 -0.050740361 0
14.816446 4.7846241 1.3943565 0
5.6954598 1.9080266 -0.83051932 0
8.8479958 2.9309466 -0.7885772 0
13.007507 4.2902226 -0.32939109 0
53.424583 17.441206 1.6996884 0
14.33012 4.7631149 2.4236531 0
7.3709941 2.5148339 -0.79165947 0
11.126562 3.766552 -0.51830232 0
52.384289 17.507774 1.6734457 0
14.644005 4.9807839 2.1096468 0
6.4029388 2.24752 -0.81366408 0
10.128598 3.5193431 -0.69529772 0
12.861226 4.4682908 -0.32411763 0
14.659142 5.1072249 1.3899932 0
5.6694326 2.0419426 -0.83518934 0
7.3750443 2.6442006 -0.8013072 0
12.805626 4.5525231 -0.32397375 0
14.344199 5.1046042 1.3695604 0
15.010069 5.3656654 2.9211507 0
9.9080124 3.5970461 -0.68039048 0
53.109283 18.955349 1.7081583 0
14.257106 5.1810927 2.4346452 0
8.8256063 3.2592416 -0.79773641 0
12.709717 4.6812229 -0.32376924 0
15.016055 5.5337219 1.4265852 0
14.177073 5.2610016 2.0697412 0
5.6684637 2.1711438 -0.84484446 0
7.3488765 2.8031404 -0.80592215 0
9.6823177 3.6896021 -0.66045427 0
12.658703 4.8252497 -0.32346711 0
13.548781 5.1777258 1.3186641 0
15.596102 5.9792852 2.6535273 0
6.4058757 2.525984 -0.8279202 0
9.586854 3.7534704 -0.65541923 0
19.1448 7.4412065 -0.15288666 0
13.975568 5.4786057 2.0550215 0
5.6526108 2.2853184 -0.84956515 0
8.8535833 3.543226 -0.81196129 0
12.627207 5.0391817 -0.32296321 0
14.08996 5.6348419 1.7205738 0
15.060174 6.0487928 2.9729667 0
7.3373613 3.0119925 -0.81039596 0
11.285642 4.6046863 -0.54591489 0
14.976521 6.1006236 1.8179755 0
5.6469865 2.3697457 -0.85435176 0
9.4356842 3.9163945 -0.64520931 0
19.929428 8.2205553 -0.17484215 0
13.668692 5.6795464 2.3851066 0
6.3944635 2.7198002 -0.83743215 0
11.244708 4.7388196 -0.54563344 0
13.529609 5.6999526 1.6749604 0
13.213896 5.5952978 2.6592646 0
8.9016247 3.8224542 -0.82618511 0
53.539722 22.615961 1.7579019 0
5.6262865 2.4639654 -0.85413623 0
9.4992657 4.1211371 -0.65960538 0
13.912878 6.0129218 1.3662721 0
5.6360383 2.4988639 -0.85903358 0
9.4590263 4.1556339 -0.65957499 0
13.922356 6.0877323 1.3714712 0
13.112259 5.7582049 2.9995236 0
11.26799 4.9880795 -0.54997873 0
14.619063 6.4664779 1.7983855 0
12.957251 5.7669377 2.9693265 0
8.8454504 3.9912264 -0.83084083 0
14.938585 6.6901641 1.0743817 0
5.6303902 2.5882943 -0.863814 0
9.3333321 4.254077 -0.64950573 0
14.868224 6.7444091 1.0744143 0
13.066398 5.9578462 2.6599529 0
7.3046875 3.3898509 -0.8294847 0
19.579424 8.9754848 -0.17348173 0
12.563107 5.8049889 2.2438655 0
7.2994428 3.4246185 -0.82940519 0
51.971558 23.930737 1.7338456 0
13.075392 6.1024199 2.6703184 0
7.3041339 3.4694657 -0.834288 0
51.685539 24.098131 1.7338316 0
13.064909 6.1721015 2.6754723 0
9.2721434 4.427803 -0.65416443 0
13.440369 6.392663 1.3465343 0
12.86512 6.1505246 2.6451352 0
8.8534374 4.2850628 -0.84510612 0
13.94809 6.7109075 1.393026 0
5.5991802 2.7570109 -0.87343407 0
8.8580952 4.334887 -0.84497809 0
13.414424 6.5319867 1.3518319 0
13.083317 6.4014888 2.6960504 0
12.623778 6.2069035 3.2899239 0
11.268987 5.5809546 -0.56853247 0
13.442529 6.655232 2.0571702 0
13.450673 6.6878629 3.1322601 0
8.8423233 4.4492621 -0.8497237 0
13.871536 6.9445086 1.3934743 0
5.5784755 2.8562438 -0.87821829 0
8.8370199 4.4940162 -0.84962344 0
13.701585 6.9430923 1.3832247 0
5.5882006 2.8961432 -0.88310766 0
8.8316889 4.5437813 -0.85451221 0
14.024879 7.185051 1.414265 0
5.5630522 2.9157758 -0.87809539 0
13.343232 6.8896608 3.8575869 0
13.655736 7.0722861 1.3834633 0
5.5778127 2.9507103 -0.88298893 0
9.1495943 4.8051538 -0.65843105 0
14.177708 7.4197564 1.8050407 0
12.437039 6.5450101 2.9454536 0
9.0993938 4.8345809 -0.6534344 0
13.190892 6.9878469 1.6975883 0
5.5474625 3.0001378 -0.88291287 0
13.550769 7.235239 3.9386988 0
14.261859 7.6306643 1.4406543 0
6.2795343 3.4200447 -0.87085962 0
12.734859 6.8738875 -0.35835394 0
12.17286 6.5890465 2.2451706 0
13.211349 7.1726918 3.8630545 0
13.409286 7.2994852 1.3786321 0
6.2741637 3.4747391 -0.87573767 0
14.302813 7.8337889 -0.058821738 0
5.5218778 3.0844293 -0.88774765 0
12.703994 7.0081987 -0.36308834 0
12.101681 6.6923647 2.5753064 0
11.144961 6.1927013 -0.57727206 0
13.118361 7.290472 2.0581849 0
7.2200632 4.0659056 -0.8579731 0
14.121306 7.8953562 0.69105428 0
12.927051 7.2517333 3.0928142 0
12.792681 7.208344 -0.36749676 0
12.375097 6.9894209 2.301393 0
7.229599 4.1356912 -0.86279631 0
13.981596 7.9448395 0.31595808 0
11.846295 6.764997 2.5400946 0
13.234165 7.5774064 3.5440171 0
12.881348 7.4134936 -0.37689647 0
12.259619 7.0681858 2.2914011 0
13.313292 7.7026682 3.5694203 0
11.267556 6.5625644 -0.59624219 0
12.837186 7.4825006 2.0432041 0
12.218029 7.1511879 2.9665279 0
8.7176857 5.1503186 -0.87326145 0
14.306652 8.4236736 1.4725341 0
11.979073 7.0900373 2.5860314 0
13.058059 7.7554183 3.5291557 0
11.231608 6.7117553 -0.60095823 0
12.840911 7.6769233 2.0536482 0
12.31635 7.3962188 3.0072284 0
9.388833 5.6840806 -0.71604609 0
14.264848 8.6119003 1.8678943 0
12.938084 7.8449526 3.1541739 0
9.3336792 5.7084751 -0.71107399 0
13.661858 8.3376522 1.8013672 0
12.887783 7.8943882 3.1492078 0
9.3233252 5.7631912 -0.71096683 0
14.0098 8.6347008 1.8475567 0
12.752851 7.8932767 3.1289999 0
9.313014 5.8129191 -0.7158711 0
13.083305 8.148325 1.745065 0
13.200316 8.2458868 3.2354643 0
9.3574638 5.8980217 -0.72061384 0
13.590506 8.5514297 1.8067311 0
5.4292135 3.4764073 -0.9069711 0
7.1517043 4.5780678 -0.88690245 0
13.511432 8.5922632 1.0616966 0
12.000276 7.6633873 2.6423399 0
12.899776 8.2625523 3.5600407 0
11.263129 7.2602921 -0.61969042 0
13.712998 8.8407764 2.2175553 0
6.1405191 4.0208001 -0.89967704 0
9.3959732 6.1325693 -0.73503649 0
13.230194 8.6231852 1.7813325 0
5.3835897 3.5704792 -0.91182733 0
7.1208429 4.7121873 -0.8916508 0
11.401415 7.5307035 -0.63888633 0
13.099998 8.6619549 1.7762144 0
5.3782988 3.6151862 -0.91673505 0
8.8228521 5.9085612 -0.93141031 0
13.468869 9.0007486 1.0675186 0
13.555885 9.087925 2.6028478 0
6.0698094 4.12958 -0.89954269 0
9.4293089 6.396975 -0.74940813 0
13.537147 9.1750135 1.4580013 0
13.161343 8.9542093 2.9219432 0
7.0748286 4.8711095 -0.8963728 0
11.429432 7.8500004 -0.65315366 0
13.097821 9.0059614 1.79195 0
13.269967 9.1595211 2.9575527 0
5.3274865 3.739048 -0.92153823 0
6.0689144 4.2689476 -0.9092387 0
6.0687928 4.2888651 -0.91419554 0
7.0689831 5.0055108 -0.90609062 0
7.0638652 5.0253906 -0.9110558 0
6.0484734 4.3384509 -0.9141196 0
5.2969084 3.8283186 -0.92639065 0
13.218581 9.4790144 2.5931399 0
13.397955 9.6608505 2.2388041 0
13.889507 10.079775 -0.47454366 0
11.406455 8.3383818 -0.67216754 0
8.7594728 6.4561024 -0.96034741 0
5.2512975 3.9223869 -0.92626595 0
9.5597363 7.1358085 -0.79764926 0
5.9922843 4.5270767 -0.9238162 0
11.573955 8.743741 -0.69607151 0
6.9570823 5.3132415 -0.92063177 0
14.329122 10.951403 -0.51706266 0
8.6133003 6.654079 -0.96018648 0
5.1954217 4.0611439 -0.93606937 0
9.6373425 7.5303044 -0.82672739 0
5.9462137 4.7008772 -0.93853629 0
11.576485 9.1576185 -0.71024334 0
6.9107857 5.5269971 -0.93527615 0
14.405629 11.535652 -0.53078032 0
8.5218945 6.8924541 -0.96986353 0
5.1345186 4.2048616 -0.94087636 0
9.6302357 7.8842125 -0.84603834 0
5.8851519 4.8745718 -0.94828773 0
11.728127 9.7175198 -0.74388838 0
6.8495331 5.7356482 -0.94496357 0
14.218461 11.923136 -0.53534806 0
8.5000982 7.1963129 -0.98930371 0
5.0636697 4.3435321 -0.95071614 0
11.761102 10.061941 -0.75816619 0
8.4744301 7.3107381 -0.99412489 0
5.0383339 4.3980117 -0.95065093 0
14.355127 12.488051 -0.5590297 0
9.7761698 8.5686398 -0.89446187 0
6.7680411 5.9889903 -0.95960665 0
5.7635746 5.1373267 -0.95797479 0
5.7634616 5.1572447 -0.96293664 0
4.9877992 4.4870758 -0.955562 0
6.7425504 6.0734515 -0.96448767 0
8.3829832 7.5641279 -1.0037965 0
6.7471957 6.1332984 -0.96936476 0
6.712235 6.127965 -0.96443558 0
4.9473863 4.5563822 -0.96049559 0
17.217869 15.788285 0.33721548 0
17.162766 15.812788 0.33716363 0
17.067888 15.802032 0.33697551 0
14.633495 13.623006 -0.60140753 0
11.735767 10.994509 -0.8014468 0
11.690731 11.00409 -0.79650867 0
11.69542 11.059013 -0.80139828 0
11.734916 11.14416 -0.80617034 0
9.7866678 9.3517294 -0.94296598 0
5.6218724 5.4297953 -0.97265911 0
11.649269 11.268145 -0.81109405 0
6.6302381 6.4760513 -0.98892081 0
15.38498 15.051538 -0.6674298 0
8.2596474 8.1563492 -1.0429035 0
4.8009901 4.7938833 -0.97029543 0
9.7345562 9.7303438 -0.96236134 0
6.5942845 6.645185 -1.0036705 0
4.7756152 4.8583803 -0.97521853 0
10.110171 10.281106 -0.3556765 0
10.090563 10.311534 -0.69065726 0
9.6336975 9.8940525 -0.96724606 0
6.5435414 6.7793088 -1.0135142 0
4.7102838 4.9174428 -0.97522485 0
11.440619 11.94486 -0.83024347 0
6.493197 6.8436089 -1.0134887 0
19.928595 21.043802 -0.99832261 0
8.156682 8.6940155 -1.0771109 0
4.6497512 5.0114603 -0.98015928 0
9.5067368 10.262091 -0.98681724 0
5.4291306 5.9161916 -1.0071028 0
23.166897 25.232096 -0.42988572 0
11.174026 12.266904 -0.83516312 0
8.140008 8.9981413 -1.1015974 0
5.3637562 5.9853301 -1.0070961 0
22.771484 25.373756 -0.42538598 0
11.10299 12.465888 -0.83994687 0
8.1140394 9.177495 -1.116328 0
5.3034248 6.0495105 -1.0120925 0
22.371113 25.510399 -0.42091057 0
10.977275 12.614535 -0.84492314 0
8.0880709 9.3568411 -1.1260618 0
5.248033 6.1237268 -1.0170629 0
21.97084 25.632065 -0.41646919 0
10.846621 12.753147 -0.84493089 0
6.2153673 7.3744674 -1.0430529 0
19.869755 23.62957 -1.0789427 0
8.0167208 9.6156168 -1.1457475 0
4.4277835 5.3678679 -0.99992406 0
4.7237325 5.7677207 -0.048665971 0
4.6496768 5.7078152 -0.38391027 0
6.1294909 7.5432043 -1.0529217 0
4.367497 5.4220676 -0.99994063 0
4.618753 5.7716355 -0.043856323 0
4.6042724 5.7821083 -0.38386616 0
4.5399013 5.7269363 -0.54908454 0
6.0638299 7.6722569 -1.0628246 0
5.0563865 6.4358759 -1.0318776 0
4.3020053 5.5160847 -1.0099002 0
4.5923414 5.9202366 0.29635116 0
4.5673537 5.9199991 0.2963039 0
4.5473661 5.9197927 0.2962651 0
4.5323172 5.9296165 0.29625353 0
4.5123296 5.9294105 0.29621464 0
4.4973106 5.9342341 0.29619357 0
4.4772925 5.9390287 0.29616404 0
4.3784828 5.8389664 -0.039197564 0
4.3584948 5.8387609 -0.039236486 0
4.3434768 5.843586 -0.039257556 0
4.3234582 5.8483796 -0.03928721 0
4.3134093 5.8582354 -0.039290547 0
4.2933912 5.86303 -0.03932026 0
4.2684336 5.8577948 -0.039377242 0
4.2534156 5.8626204 -0.039398551 0
4.2336769 5.8677244 -0.2044279 0
4.2685289 5.9431796 -0.37923321 0
4.1397085 5.7925906 -0.52973855 0
4.9136376 6.8978744 -0.88136852 0
4.7748761 6.74225 -1.0469011 0
4.0756154 5.7878695 -1.0248725 0
4.2020364 6.0110259 0.29575157 0
4.1029954 5.9006486 0.13037235 0
4.0882277 5.9107819 -0.034639657 0
4.0586114 5.8958249 -0.19972348 0
4.0587316 5.9260573 -0.36967298 0
4.0489349 5.9412193 -0.53466725 0
5.6060309 8.2515688 -1.0877492 0
4.6392422 6.8755713 -1.0519472 0
3.9600585 5.9013443 -1.02991 0
16.631214 24.776218 2.4314861 0
4.0119061 6.0539784 0.2954478 0
3.922801 5.9536633 0.13010511 0
3.9080355 5.9637952 -0.03490746 0
3.8930483 5.963624 -0.034938842 0
3.8832533 5.9787846 -0.19993377 0
3.8583174 5.9685445 -0.19500068 0
3.838553 5.9786453 -0.36002198 0
3.9130464 6.1193457 -0.54464328 0
3.8090847 5.9889059 -0.69006586 0
3.808898 6.0238314 -0.69500804 0
3.818399 6.0635142 -0.53492463 0
3.8380635 6.123559 -0.53978729 0
3.7580805 6.0223761 -0.19511345 0
3.7526999 6.0419741 -0.035092264 0
3.8064327 6.1616173 0.2952126 0
3.7914164 6.1664486 0.29518968 0
15.546723 25.198772 4.4998984 0
4.3581018 7.1271877 -1.0621052 0
5.244452 8.6074486 -1.102908 0
3.6434345 6.0214982 -0.35534695 0
3.6430242 6.0461278 -0.19530845 0
3.6227531 6.0456314 -0.030349553 0
3.7699943 6.320231 0.63539553 0
15.31611 25.597866 3.8250318 0
3.6488423 6.1624327 -1.0401093 0
4.2477913 7.2009377 -1.0622133 0
3.4941564 5.9553986 -0.50575876 0
3.5283422 6.0502434 -0.35053465 0
3.5227141 6.0645595 -0.030523628 0
3.6799009 6.3492217 0.63525432 0
3.664856 6.3590541 0.63523954 0
14.173035 24.580566 3.6510124 0
3.5634525 6.246366 -1.0451491 0
5.023571 8.8150072 -1.1130387 0
4.9985976 8.8147717 -1.1130921 0
3.4232597 6.0790653 -0.35070685 0
3.4222274 6.1131206 0.13434745 0
3.5548902 6.3679423 0.63002622 0
14.036416 25.140148 3.026583 0
3.4881997 6.3054428 -1.0502123 0
4.9082642 8.8938017 -1.1131574 0
3.3481727 6.1032181 -0.34582481 0
3.3377917 6.1227961 -0.18581384 0
13.698378 25.073898 2.3407483 0
14.145471 26.01383 3.7981608 0
13.723289 25.365202 4.3912487 0
3.9818454 7.4228802 -1.0724177 0
3.2288301 6.0473976 -0.50116253 0
3.2531087 6.1271887 -0.34598514 0
3.2523906 6.1565447 -0.025940031 0
3.2373464 6.1663795 -0.025955319 0
3.2220521 6.1709309 0.13401999 0
3.3447249 6.4257011 0.62967646 0
13.877464 26.656227 3.8485518 0
4.6925349 9.0765152 -1.1233331 0
3.1676805 6.1659398 -0.18610391 0
3.1622703 6.1905513 -0.026076227 0
3.2110317 6.3101997 0.2942127 0
3.1811612 6.2899494 0.29411843 0
3.2446954 6.4446578 0.62949395 0
3.267287 6.5127296 -1.0653529 0
4.5871344 9.175395 -1.1284081 0
3.0385649 6.1202621 -0.4964492 0
3.0186074 6.1150689 -0.49649963 0
3.0233712 6.160027 -0.50141966 0
2.9688184 6.079607 -0.48666152 0
3.3595226 6.9222775 -0.77452219 0
3.3695014 6.9875822 -0.96439958 0
3.3347108 6.9522934 -0.95952952 0
3.3097773 6.9420614 -0.95459878 0
3.2697186 6.8964252 -0.76475513 0
3.2747562 6.9517002 -0.95465934 0
3.0919366 6.605762 -1.0655853 0
3.0401819 6.5482616 0.12921382 0
3.085557 6.6996236 -0.56045544 0
3.1284285 6.8685489 0.11989689 0
3.1794648 7.0256033 -0.95975494 0
3.2019012 7.1487417 0.11548264 0
3.2921748 7.4007926 -0.83393848 0
3.5119171 7.9849625 0.29743212 0
3.3945365 7.7705488 -0.48815194 0
4.1457324 9.5458546 -1.148815 0
2.9013934 6.7435865 -1.0757886 0
3.979095 9.3218126 0.5354811 0
4.7020969 11.088576 -1.0952618 0
3.5155053 8.4000568 -0.12193406 0
4.6121721 11.092802 -1.0904545 0
2.7962322 6.7924423 -1.0759444 0
3.2398419 7.9498239 -1.0982231 0
3.7013059 9.1906881 -0.16033351 0
2.7260666 6.8366585 -1.0760319 0
3.9527605 10.01275 -0.69354284 0
3.8250151 9.7627354 -1.1642022 0
4.183548 10.813924 -0.77182996 0
2.6409302 6.8807235 -1.0811549 0
4.2520008 11.214586 -1.0910805 0
2.60077 6.9202762 -1.0861832 0
3.6498759 9.8310995 -1.1644932 0
4.9937844 13.628201 -1.0358236 0
2.515795 6.9294114 -1.0813575 0
3.5397582 9.8800783 -1.1646672 0
4.9028277 13.852292 -1.0557015 0
2.4357469 6.9535837 -1.0814987 0
2.4155447 6.9983282 -1.0864764 0
2.380554 7.0029831 -1.0865468 0
2.7589245 8.2349701 -1.1188658 0
3.95189 11.919526 0.01428172 0
3.2746196 9.9726467 -1.165131 0
2.2953451 7.0620661 -1.0916492 0
3.8561597 11.988206 0.30416465 0
3.8217139 11.988409 0.014087856 0
3.1694353 10.03668 -1.1702745 0
3.7411885 12.012258 0.30393901 0
3.5415704 11.48335 -1.0922956 0
3.4915674 11.497915 -1.0923898 0
3.44152 11.522489 -1.0974683 0
3.3914368 11.552055 -1.0975386 0
3.341408 11.571623 -1.0976251 0
3.2864332 11.581166 -1.0977368 0
2.8440003 10.208745 -1.1807624 0
4.0195799 14.779749 -1.1113725 0
2.7338994 10.257762 -1.1809436 0
3.8300295 14.743309 -1.1068649 0
2.6237566 10.316792 -1.1861099 0
3.669904 14.817043 -1.1071301 0
2.5137136 10.355819 -1.1863089 0
3.4838827 15.090525 -1.1321667 0
-2.789953 16.201529 -1.2342138 0
-2.3065181 12.910307 -1.2338353 0
-1.9662406 10.611607 -1.2213061 0
-1.407292 7.4288058 -1.1295303 0
-5.7248673 29.310303 2.3915997 0
-2.5613649 12.963768 -1.2493204 0
-1.7224805 8.637228 -1.1535283 0
-6.0672002 29.657707 3.1263225 0
-6.5196934 31.5375 5.5929565 0
-6.2069449 29.65703 3.1260099 0
-6.5233245 30.799522 3.9769132 0
-6.831203 31.945967 5.6678367 0
-1.8372821 8.6263819 -1.1537931 0
-3.382684 15.619709 -1.192412 0
-6.4771595 29.538477 1.0052443 0
-6.8127356 30.783142 3.9812467 0
-6.3813639 28.57263 5.8091359 0
-3.4618952 15.474201 -1.1827888 0
-6.8031464 30.114157 3.180326 0
-1.9370664 8.6056652 -1.1540356 0
-2.4053252 10.543684 -1.2223549 0
-6.8112459 29.471863 1.004408 0
-1.6866555 7.356585 -1.1252288 0
-7.0197244 30.023687 -1.1302818 0
-7.5424662 31.994629 4.1413274 0
-6.8851662 28.988302 7.3536038 0
-7.0081449 29.419107 2.4139009 0
-2.0419719 8.614934 -1.1592478 0
-7.3004799 30.292398 -1.1455266 0
-7.1060052 29.270912 4.5284796 0
-7.1727147 29.320921 8.1934347 0
-7.2762113 29.634672 1.0086086 0
-1.7915283 7.3557954 -1.1304528 0
-3.7601013 15.182397 -1.1638473 0
-7.3395333 29.304346 1.0030086 0
-7.3730478 29.237839 5.9728761 0
-2.6447754 10.49712 -1.2279365 0
-7.4003453 28.960806 -0.39260545 0
-7.6691265 29.832294 5.3580217 0
-3.3860242 13.168953 -1.2958335 0
-8.5472088 32.861969 2.6753216 0
-2.7196281 10.486639 -1.2281114 0
-7.8731871 29.995979 1.7478004 0
-2.2415564 8.5785284 -1.1647234 0
-7.6506515 28.858732 0.30170155 0
-7.8787479 29.545448 6.0521927 0
-8.0138807 29.943083 -0.41758367 0
-1.9462351 7.329628 -1.1358153 0
-3.9270604 14.566184 -1.1150646 0
-8.2951279 30.505295 4.7375879 0
-3.5959356 13.217775 -1.3062174 0
-8.1739397 29.746407 0.30179092 0
-8.8385067 31.924673 3.3883722 0
-2.8791742 10.435593 -1.2285254 0
-8.4708662 30.260101 0.3018598 0
-8.3724289 29.729088 5.3663383 0
-4.1017694 14.56021 -1.1154509 0
-8.4596281 29.729193 1.0161434 0
-2.0659709 7.298727 -1.1361082 0
-4.202023 14.649706 -1.1255422 0
-8.5167437 29.404804 0.30056733 0
-8.7620096 30.033224 4.6909118 0
-2.4810812 8.5368576 -1.1652882 0
-4.2814479 14.549228 -1.1208516 0
-14.310869 48.093475 -2.0260851 0
-4.3614783 14.583808 -1.1259766 0
-9.0849991 30.055052 -1.8897684 0
-4.4060025 14.493524 -1.1211967 0
-4.4561071 14.533276 -1.1262486 0
-9.2943792 29.999111 -1.8952994 0
-4.1556978 13.354699 -1.3422312 0
-2.2503705 7.2072806 -1.1316193 0
-17.961617 56.103855 -2.4279113 0
-4.6555343 14.472178 -1.1267588 0
-3.3380768 10.327701 -1.234647 0
-4.6661091 14.195673 -0.057161391 0
-4.7547793 14.336579 -1.1171569 0
-4.4804978 13.417966 -1.3628352 0
-4.5104284 13.412797 -1.3629066 0
-2.8552406 8.449296 -1.1711928 0
-2.4350083 7.1709213 -1.1370522 0
-19.668037 56.56694 1.7040321 0
-19.375208 55.263229 -2.4171391 0
-5.120204 14.554774 -1.1476349 0
-3.6223435 10.245935 -1.2353561 0
-2.9949138 8.4133654 -1.1765313 0
-19.767809 54.451748 1.6558958 0
-19.78898 54.076618 -2.3746688 0
-4.8844318 13.310743 -1.3688358 0
-3.0896478 8.3777218 -1.1767756 0
-20.75976 55.264492 4.434885 0
-20.909575 55.278919 4.4395833 0
-20.480932 53.673958 -2.3667061 0
-11.556104 30.114367 -1.9550011 0
-5.0482831 13.099754 -1.349465 0
-3.9214649 10.134096 -1.2361312 0
-2.7341344 7.0386801 -1.1328437 0
-2.7541363 7.0435472 -1.1328781 0
-21.678556 54.234489 1.6615118 0
-12.140498 30.191961 -1.9761348 0
-4.0560079 10.068273 -1.2364976 0
-2.833885 7.0029655 -1.1330931 0
-12.490179 30.245546 -1.9917984 0
-4.1507573 10.037708 -1.2367339 0
-23.848736 56.611252 -2.559849 0
-5.5073614 13.03736 -1.3655049 0
-2.9435599 6.9521637 -1.1333823 0
-5.6122127 13.036831 -1.3707224 0
-23.445627 53.612919 -2.4230857 0
-5.7069945 13.016338 -1.3709462 0
-3.0383346 6.9214797 -1.133615 0
-6.6998448 14.992187 -1.2453448 0
-3.0881834 6.8961301 -1.1337471 0
-6.7995009 14.946693 -1.245612 0
-3.6977894 8.1036491 -1.1733837 0
-23.899878 51.431465 -2.3469985 0
-6.9441032 14.900995 -1.2459701 0
-4.5993304 9.8350382 -1.2379205 0
-3.7824402 8.0430803 -1.1736335 0
-24.638861 51.468842 -2.3634884 0
-7.1286612 14.86012 -1.2514042 0
-4.7089601 9.7793922 -1.238216 0
-3.2825491 6.7897158 -1.1342746 0
-14.851044 30.15629 -2.0618463 0
-6.2497339 12.663455 -1.3625277 0
-4.8236122 9.728734 -1.2385131 0
-4.8485618 9.7235947 -1.23857 0
-3.9868801 7.9617691 -1.1741499 0
-3.3822086 6.7289777 -1.1295516 0
-26.393261 51.52309 1.6379489 0
-7.6077609 14.802922 -1.267455 0
-6.4688601 12.527327 -1.3631506 0
-4.9980211 9.6377249 -1.2389822 0
-4.1064367 7.8859854 -1.174486 0
-5.0479221 9.6274519 -1.2390954 0
-7.7872396 14.737092 -1.2679046 0
-25.989426 48.759533 -2.28491 0
-26.10404 48.714153 -2.2852063 0
-22.791063 42.337452 1.4030968 0
-22.907835 42.404278 8.1979465 0
-22.702387 41.808849 9.2426167 0
-4.2310357 7.8201914 -1.1748173 0
-6.7478161 12.365921 -1.3639219 0
-26.410204 47.96825 -2.2618237 0
-26.459326 47.788113 -2.2571607 0
-27.323502 49.12204 0.28784424 0
-24.802498 44.370174 1.4666877 0
-4.3157201 7.7646461 -1.1750551 0
-25.917742 45.968204 12.781583 0
-22.598883 39.876209 12.275273 0
-8.3414097 14.714674 -1.2940474 0
-8.3712616 14.689536 -1.2941396 0
-8.4413662 14.734255 -1.2992214 0
-8.4913397 14.744049 -1.3043084 0
-23.838837 41.099197 1.3843277 0
-21.835573 37.484863 7.4036322 0
-21.474115 36.6852 8.2833452 0
-5.4814334 9.3900108 -1.2452604 0
-7.1313844 12.139018 -1.35998 0
-8.7512608 14.802977 -1.3197495 0
-22.530285 37.751339 12.877617 0
-24.32604 40.632698 1.3827374 0
-22.828751 38.000069 8.6273432 0
-4.5347533 7.5781941 -1.1657196 0
-5.6009541 9.304327 -1.2406043 0
-23.408703 38.410526 10.931712 0
-5.6508145 9.2840719 -1.2457263 0
-5.6757674 9.2789412 -1.2457818 0
-4.6144114 7.5126805 -1.165956 0
-5.7105994 9.2487354 -1.2458891 0
-9.2760324 14.905857 -1.3556551 0
-12.157477 19.415333 -1.3205466 0
-9.7451649 15.502768 -0.14581159 0
-9.8202505 15.542477 -0.14590731 0
-26.65657 41.886101 0.27972737 0
-4.0201635 6.3595262 -1.1312544 0
-4.7239685 7.4269714 -1.1612668 0
-7.5895958 11.841812 -1.3612403 0
-12.320862 19.089678 -1.3062459 0
-26.463749 40.780804 1.4087651 0
-4.069942 6.3141623 -1.1313926 0
-25.489967 38.955963 9.0433979 0
-4.7986345 7.3614874 -1.1614722 0
-5.9244814 9.0274935 -1.2365417 0
-24.318817 36.623562 10.687768 0
-9.9052868 14.913357 -1.3867973 0
-7.7886758 11.675865 -1.3617851 0
-10.030282 14.947886 -1.3969787 0
-12.382617 18.354355 -1.2672138 0
-28.303457 41.701077 0.27652818 0
-28.186029 41.387619 8.4963846 0
-29.303049 42.783737 3.9010079 0
-26.617386 38.717583 9.1210938 0
-4.2192698 6.1680689 -1.1218119 0
-4.9679141 7.215415 -1.1569281 0
-4.9828591 7.2053194 -1.1569649 0
-8.012702 11.499812 -1.3573771 0
-27.578581 39.279137 0.27501068 0
-27.354158 38.805214 4.6998692 0
-5.0276618 7.1650372 -1.1570855 0
-22.342531 31.441778 10.365273 0
-28.179047 39.562233 0.27427658 0
-4.3239536 6.1073885 -1.1270549 0
-23.293135 32.465286 8.7597704 0
-28.557234 39.687275 -0.86124539 0
-27.883322 38.630089 8.0937452 0
-22.498888 31.057541 9.3545609 0
-28.046892 38.621796 1.3784391 0
-4.3687329 6.0570483 -1.1221842 0
-11.075088 15.199024 -1.4735165 0
-26.10615 35.635468 4.3934436 0
-5.1571898 7.0692492 -1.1524084 0
-13.737269 18.664616 -1.3442284 0
-28.073151 37.976101 6.9076715 0
-23.99003 32.341099 10.80842 0
-26.689917 35.899708 3.3977275 0
-5.196979 7.0239878 -1.1525235 0
-6.3772016 8.5649347 -1.2178334 0
-14.112456 18.813341 -1.3647065 0
-26.659239 35.363953 4.4021821 0
-23.390673 30.920868 8.5078621 0
-24.036631 31.651415 10.667569 0
-27.265619 35.826939 4.4666562 0
-4.4982033 5.9411559 -1.1225213 0
-25.320063 32.997711 10.121865 0
-27.085918 35.181301 15.261271 0
-4.5080662 5.9060292 -1.1175741 0
-6.5066633 8.4592466 -1.2181627 0
-11.934918 15.395985 -1.5397621 0
-26.777901 34.370174 3.315876 0
-5.3312941 6.8731165 -1.1479053 0
-24.783749 31.555265 9.7711887 0
-14.776602 18.796127 -1.3958511 0
-26.765694 33.875454 3.2853546 0
-4.5877862 5.8454938 -1.1177661 0
-6.601131 8.3437128 -1.2134404 0
-30.071449 37.653706 -0.85111427 0
-27.160311 33.889305 3.3047047 0
-26.230595 32.616341 9.1599026 0
-26.309019 32.605675 14.414768 0
-4.6375675 5.7951512 -1.117898 0
-12.399181 15.344364 -1.565593 0
-26.645979 32.786339 3.2193749 0
-30.039459 36.823658 9.2180624 0
-12.50399 15.324002 -1.5707878 0
-26.63961 32.476517 3.2040522 0
-27.169752 33.004425 8.3187475 0
-8.8388109 10.746067 -1.3495847 0
-29.617319 35.758591 1.3426056 0
-26.632616 32.026768 3.1785831 0
-30.069984 36.002697 5.7421222 0
-8.9135036 10.685748 -1.3497688 0
-30.572176 36.381752 0.2666845 0
-28.502146 33.820084 8.5924072 0
-12.732874 15.108192 -1.5663902 0
-31.284145 36.921078 3.6460855 0
-27.844578 32.756611 9.3973684 0
-31.893316 37.423782 -0.87439477 0
-28.620544 33.499973 8.5618744 0
-25.909527 30.225868 11.672889 0
-32.352398 37.635094 1.4150771 0
-5.6350107 6.5912652 -1.143681 0
-27.88043 32.219761 11.41175 0
-31.027653 35.788574 2.4753149 0
-29.536697 33.952099 8.7408476 0
-13.062103 15.002088 -1.5820334 0
-26.609468 30.345606 14.946877 0
-39.580025 45.042938 10.106014 0
-6.9492602 7.9318089 -1.204421 0
-26.952932 30.433754 10.901404 0
-29.416197 33.128643 -1.7998302 0
-31.783072 35.660484 3.6039562 0
-31.847607 35.570374 3.5987594 0
-31.810389 35.38335 5.813632 0
-5.7643528 6.435452 -1.1390362 0
-13.396106 14.835977 -1.5877361 0
-29.384632 32.353062 -0.75057101 0
-25.689526 28.125179 14.121084 0
-4.9461679 5.4579687 -1.1087128 0
-7.088531 7.7660623 -1.1998013 0
-29.749016 32.297115 -0.75621068 0
-32.732353 35.39539 1.3821583 0
-4.9860392 5.4277139 -1.108802 0
-30.003057 32.131531 -0.75678134 0
-30.803638 32.873817 4.4627004 0
-5.0158715 5.3824883 -1.1038898 0
-7.1880636 7.660552 -1.2000564 0
-31.180195 32.94302 -0.79283619 0
-29.861689 31.433271 3.2927542 0
-5.9186006 6.254498 -1.1344446 0
-32.713306 34.166103 11.460979 0
-9.5752745 10.002932 -1.3414943 0
-31.56238 32.760052 1.3163851 0
-33.258263 34.403 8.1153517 0
-32.130829 33.117424 12.330862 0
-30.653028 31.545115 4.3616242 0
-32.740639 33.586544 11.365366 0
-20.063133 20.539896 -1.7375877 0
-33.934937 34.603344 5.9144859 0
-7.3223419 7.4898415 -1.1954215 0
-28.321884 28.69132 15.992499 0
-32.911568 33.254143 3.5297649 0
-5.1302357 5.2166247 -1.0992121 0
-5.1502109 5.2115207 -1.0992464 0
-6.0479145 6.0836773 -1.1297956 0
-9.7842112 9.7670765 -1.3420352 0
-33.019176 32.732395 0.2590903 0
-34.495865 34.105076 8.2231407 0
-5.190001 5.1562333 -1.0993541 0
-6.1026883 6.0283599 -1.1299263 0
-33.393776 32.571857 10.168376 0
-9.8836784 9.6466722 -1.3422956 0
-37.897858 36.721458 1.4803865 0
-30.2215 29.200962 6.1650481 0
-6.1323938 5.9481173 -1.1250411 0
-38.183495 36.658188 -0.97511387 0
-30.0548 28.771717 6.1048994 0
-35.615047 33.963821 11.911295 0
-21.611767 20.565657 -1.8199351 0
-31.145601 29.534321 5.2689519 0
-6.1771412 5.8828349 -1.1251637 0
-14.615952 13.802162 -1.6056051 0
-30.887075 29.016327 4.2088618 0
-5.3245158 5.0303717 -1.099659 0
-7.590847 7.1234269 -1.1861503 0
-33.920189 31.554932 1.3316168 0
-30.809847 28.55901 7.1585641 0
-7.6206722 7.0782771 -1.1862339 0
-22.020386 20.309675 -1.8307817 0
-34.328175 31.533754 6.8059959 0
-7.6455283 7.0431428 -1.1862997 0
-40.000168 36.531574 1.5070289 0
-7.6654639 7.0280533 -1.1863418 0
-32.434235 29.446903 15.051947 0
-5.4041977 4.9448485 -1.0998448 0
-7.6852989 6.9829307 -1.181409 0
-28.857609 25.956505 11.37913 0
-31.737335 28.502712 6.2471271 0
-7.7101412 6.9427981 -1.1814787 0
-29.202703 26.025553 11.46868 0
-35.266582 31.34976 3.5544255 0
-5.4539604 4.8795004 -1.0999689 0
-7.7549219 6.8875771 -1.1815896 0
-29.080755 25.566305 11.353455 0
-31.57608 27.705639 4.1716552 0
-5.4737945 4.829318 -1.0950376 0
-29.817528 25.951813 8.6527042 0
-15.113073 13.140737 -1.5969207 0
-34.880413 30.184629 5.6389742 0
-28.428732 24.520699 9.1484938 0
-36.308514 31.241549 -0.85721087 0
-6.3958678 5.5364127 -1.1107663 0
-23.613712 20.225622 -1.9132042 0
-5.5335708 4.7689476 -1.1001697 0
-15.207407 12.980481 -1.5971934 0
-37.342896 31.696701 1.3866767 0
-36.136414 30.578037 9.1674757 0
-29.72876 25.04784 8.5170517 0
-10.460271 8.8193626 -1.3288544 0
-35.013546 29.327057 3.443037 0
-5.5933719 4.7135763 -1.1002955 0
-31.318449 26.037121 9.9005947 0
-15.351456 12.750094 -1.5925918 0
-24.417791 20.153666 -1.9544268 0
-37.905312 31.155867 1.3904035 0
-5.6331825 4.6583042 -1.1003931 0
-6.5252481 5.3656497 -1.1110816 0
-30.528677 24.800247 9.570694 0
-15.490685 12.564725 -1.5929419 0
-34.569992 27.886217 1.2824622 0
-5.6579733 4.5930738 -1.0954763 0
-32.106674 25.725533 9.9942045 0
-15.58026 12.46449 -1.5931488 0
-39.585365 31.486786 1.4232726 0
-31.245321 24.785288 7.7646565 0
-15.649998 12.404305 -1.5932949 0
-36.455193 28.739244 3.4954824 0
-8.0530157 6.3709917 -1.167421 0
-36.14246 28.349194 -0.81439841 0
-34.636082 27.081129 7.4717255 0
-30.098259 23.447611 9.2902021 0
-34.845127 27.077194 0.25141186 0
-5.7225838 4.4725757 -1.0906529 0
-15.77923 12.21398 -1.5936258 0
-37.672108 29.010248 4.6839848 0
-8.1026325 6.2607098 -1.1625719 0
-30.194565 23.091026 11.149787 0
-40.394314 30.831335 6.1766124 0
-8.1275034 6.2255859 -1.162631 0
-30.795282 23.32934 11.324134 0
-35.192661 26.604052 3.3355558 0
-32.132484 24.208763 7.8279486 0
-10.832786 8.1629162 -1.3148874 0
-35.62455 26.664881 1.2849964 0
-34.828259 25.990732 8.4355822 0
-31.233177 23.214291 10.433434 0
-37.420685 27.743011 3.5033386 0
-34.927475 25.805685 8.4302988 0
-32.448883 23.876619 9.7922554 0
-37.631882 27.624594 1.3329504 0
-41.064407 30.053534 8.6000786 0
-8.236867 6.0450392 -1.1629096 0
-16.152382 11.758062 -1.5994862 0
-37.745522 27.336737 4.5925822 0
-6.7938123 4.9440031 -1.1067529 0
-33.313736 23.934559 9.9661074 0
-10.941725 7.8624673 -1.3052541 0
-38.540821 27.497751 1.3466033 0
-41.6674 29.622686 8.6389227 0
-41.565403 29.42083 11.063896 0
-16.261442 11.50282 -1.5898206 0
-38.197048 26.855049 0.24659315 0
-38.137897 26.711519 4.5865788 0
-40.975117 28.56246 6.0740781 0
-34.075867 23.669004 9.064868 0
-33.970169 23.479445 9.0248728 0
-6.9032974 4.7833676 -1.1020058 0
-6.903235 4.7633357 -1.1020181 0
-16.390171 11.15256 -1.5852414 0
-11.105562 7.531857 -1.3007016 0
-8.4256887 5.694077 -1.1583997 0
-11.125235 7.4317627 -1.2957953 0
-5.9911284 4.0005832 -1.0813214 0
-11.154938 7.3416414 -1.2908937 0
-16.438616 10.69253 -1.5656204 0
-6.0209026 3.920315 -1.0764086 0
-11.18943 7.1864848 -1.2860385 0
-11.214238 7.1263905 -1.2811099 0
-11.234056 7.0713143 -1.2811694 0
-11.253859 7.0112386 -1.2812327 0
-11.283689 6.9611363 -1.2813014 0
-11.303503 6.9010572 -1.2763638 0
-11.32331 6.8409829 -1.2764258 0
-11.353132 6.7858829 -1.2764975 0
-11.367954 6.7308221 -1.2765474 0
-11.407804 6.6856966 -1.2766241 0
-11.432615 6.6256108 -1.2766913 0
-11.457441 6.5705271 -1.276742 0
-11.472263 6.5104671 -1.2717738 0
-11.497092 6.4553852 -1.2718151 0
-11.511922 6.4003301 -1.2718418 0
-11.53674 6.3402495 -1.2718861 0
-11.536553 6.2752285 -1.2668988 0
-11.576412 6.2301106 -1.2669506 0
-11.586222 6.1650696 -1.2669767 0
-11.616069 6.1149783 -1.2670177 0
-11.625888 6.0499334 -1.2620428 0
-11.635713 5.989893 -1.2620634 0
-11.665564 5.9398026 -1.2621024 0
-11.675379 5.8747625 -1.262126 0
-11.670202 5.8097558 -1.2571288 0
-11.705057 5.759655 -1.2571735 0
-11.69987 5.6896482 -1.2521795 0
-11.709691 5.624609 -1.2522014 0
-11.73956 5.5795212 -1.2522334 0
-11.74439 5.5144911 -1.2472477 0
-11.759226 5.4544406 -1.2472709 0
-11.769063 5.394402 -1.2472872 0
-11.773909 5.3343725 -1.2422963 0
-11.798747 5.2742991 -1.2423313 0
-11.788594 5.2143049 -1.2373195 0
-11.803436 5.1542554 -1.2373405 0
-11.803274 5.0892377 -1.2323453 0
-11.808119 5.0292125 -1.2323525 0
-11.822964 4.9691639 -1.232372 0
-11.822817 4.9091468 -1.2273722 0
-11.832664 4.8491092 -1.227384 0
-11.847514 4.7890615 -1.2274023 0
-17.131876 6.8271666 -1.45753 0
-17.126637 6.7322125 -1.4525293 0
-17.106396 6.6372933 -1.4475093 0
-17.061134 6.5324292 -1.4424648 0
-17.065908 6.4424529 -1.437471 0
-17.035666 6.3425546 -1.4324411 0
-60.138927 22.012833 -2.7643425 0
-6.4873114 2.3806913 -1.0271838 0
-6.5022607 2.3555954 -1.0321928 0
-7.5479918 2.6882405 -1.0432082 0
-7.5479116 2.6481843 -1.0432049 0
-7.5528426 2.6131175 -1.0432043 0
-9.1638861 3.1146052 -1.0897688 0
-9.183814 3.0795221 -1.0897799 0
-9.17871 3.0294931 -1.0897709 0
-16.93362 5.4881039 -1.3972974 0
-16.948431 5.4081092 -1.397303 0
-16.933218 5.3131747 -1.3922834 0
-16.923027 5.2282295 -1.3872626 0
-16.927832 5.1432557 -1.387259 0
-16.897625 5.0483513 -1.3822207 0
-58.561436 17.167736 -2.6226006 0
-7.6121521 2.2323997 -1.0331999 0
-12.024501 3.453361 -1.1974672 0
-12.019385 3.3933566 -1.1924517 0
-12.024262 3.3333344 -1.1924475 0
-56.0051 15.193045 0.22503991 0
-7.6218767 2.067127 -1.0281726 0
-12.01397 3.1833224 -1.1874098 0
-16.821171 4.3687792 -1.3570375 0
-16.770979 4.2739115 -1.3519737 0
-16.74581 4.1889935 -1.3469312 0
-57.893944 14.165781 1.608465 0
-9.2622862 2.2586162 -1.0697011 0
-16.705393 3.9791529 -1.336848 0
-16.675211 3.8892465 -1.3368024 0
-16.69006 3.8092489 -1.3317993 0
-6.5709295 1.4986439 -0.99707508 0
-7.6263151 1.6965555 -1.0130787 0
-9.2518921 2.0134151 -1.0596222 0
-16.699528 3.5343511 -1.3317366 0
-6.5807872 1.3883955 -0.99704969 0
-11.982663 2.4582171 -1.1621971 0
-16.689165 3.3394539 -1.326668 0
-57.277012 11.156725 1.5796958 0
-16.67894 3.2145214 -1.3216269 0
-6.5856495 1.2681208 -0.9920069 0
-9.2664623 1.7281303 -1.0545453 0
-16.653587 3.0146511 -1.3165418 0
-6.5905609 1.1879443 -0.98698366 0
-7.6508484 1.3409518 -1.002975 0
-9.2662544 1.5779914 -1.0494887 0
-59.33448 9.7184439 -2.5817733 0
-6.6004491 1.0826972 -0.98694789 0
-11.93676 1.8881691 -1.1469644 0
-62.571541 9.5644941 4.6454291 0
-11.936638 1.8031474 -1.141934 0
-60.177475 8.7288027 -2.6122153 0
-7.6505823 1.1105922 -0.99787891 0
-9.2508802 1.2927622 -1.0443645 0
-62.939251 8.4458857 4.6604714 0
-11.921328 1.5831212 -1.1368299 0
-60.360409 7.6403437 -2.6120005 0
-7.6504288 0.96537036 -0.99281788 0
-11.906135 1.4431156 -1.1367586 0
-60.443439 6.983922 1.6381981 0
-9.2406073 1.0575594 -1.0342515 0
-9.2355633 1.0175289 -1.0342255 0
-42.011551 4.3673735 -0.73950541 0
-9.2304907 0.95247871 -1.0341915 0
-9.2554493 0.91239804 -1.0341944 0
-11.825708 1.1031634 -1.1215407 0
-16.091146 1.4212143 -1.2404314 0
-61.830147 5.1600051 1.6627047 0
-37.174404 3.0166209 -0.61967587 0
-6.5899863 0.53152966 -0.97167444 0
-9.1952286 0.69229466 -1.0240359 0
-11.745399 0.82821596 -1.1063356 0
-11.730338 0.77322561 -1.1062952 0
-63.023701 3.7879655 -2.7227776 0
-9.1650925 0.54220086 -1.018932 0
-6.5998936 0.38118675 -0.9715991 0
-11.65017 0.608302 -1.0961399 0
-15.765316 0.74696249 -1.2098171 0
-6.5998526 0.3060239 -0.97155535 0
-6.584837 0.27598172 -0.97152364 0
-6.5748277 0.24592635 -0.96649194 0
-9.1298914 0.29200587 -1.013745 0
-62.74551 1.6370062 -2.7013242 0
-9.1098471 0.22696693 -1.0086776 0
-27.16036 0.52996922 -1.0095831 0
-11.459817 0.20843425 -1.0706956 0
-62.388241 0.80669725 1.6746448 0
-9.0647736 0.10689739 -1.0035326 0
-15.399658 0.09765891 -1.1690283 0
-7.559751 0.03901054 -0.9721694 0
-62.038231 -0.069194034 -2.6694119 0
-9.0196991 -0.018175116 -0.99838877 0
-61.786461 -0.46028972 1.6611512 0
-8.9896708 -0.078202464 -0.99330926 0
-15.214382 -0.2170164 -1.1536118 0
-6.5347223 -0.099811606 -0.95615685 0
-11.269501 -0.23149647 -1.0501616 0
-61.866318 -1.621439 -2.6580353 0
-7.479672 -0.20130014 -0.9568876 0
-11.234426 -0.35651013 -1.0450189 0
-6.5097003 -0.22005381 -0.95602596 0
-22.144875 -0.86209226 0.26091957 0
-8.8645458 -0.36335844 -0.97795057 0
-14.939033 -0.68656003 -1.1279631 0
-6.4947014 -0.3052443 -0.95092714 0
-7.4046345 -0.38653451 -0.94665134 0
-11.104285 -0.63147736 -1.0296586 0
-11.089261 -0.68148291 -1.0295997 0
-14.768848 -0.98129421 -1.1125498 0
-14.748803 -1.0512586 -1.1124737 0
-14.693776 -1.1111805 -1.107365 0
-14.658739 -1.1761268 -1.107275 0
-14.628708 -1.2410824 -1.1021888 0
-14.588676 -1.3060259 -1.097095 0
-14.53865 -1.3659555 -1.0969914 0
-14.508628 -1.425913 -1.0919031 0
-14.473597 -1.4908627 -1.091812 0
-6.3897362 -0.67098987 -0.93547678 0
-8.6394386 -0.94379854 -0.94718957 0
-14.388535 -1.6507472 -1.0815878 0
-6.3347678 -0.73610336 -0.92535746 0
-10.779079 -1.3064572 -0.99872732 0
-8.5894365 -1.0588875 -0.9420315 0
-56.33115 -7.2747235 -2.4132266 0
-7.209661 -0.93734735 -0.92092597 0
-10.704063 -1.4464574 -0.9935205 0
-56.335678 -7.9187174 -2.4176092 0
-8.5344467 -1.2090236 -0.93682587 0
-63.107128 -9.2824764 1.7127569 0
-8.5044546 -1.264064 -0.93674183 0
-56.440132 -8.7176208 -2.4269321 0
