# .PCD v0.7 - Point Cloud Data file format
VERSION 0.7
FIELDS x y z intensity
SIZE 4 4 4 4
TYPE F F F F
COUNT 1 1 1 1
WIDTH 1384
HEIGHT 1
VIEWPOINT 0 0 0 1 0 0 0
POINTS 1384
DATA ascii
-35.331421 28.484983 3.8868821 0
-5.2355456 4.3584142 -0.91579282 0
-7.2171974 5.9266 -0.92713797 0
-9.0986061 7.4004612 -0.96502697 0
-39.18327 31.193417 0.75431752 0
-36.056412 28.533468 3.9235971 0
-34.831108 27.349798 9.0406189 0
-9.1534986 7.3402295 -0.96672678 0
-30.570749 23.726126 11.744725 0
-36.040646 28.114006 3.899179 0
-39.343521 30.453241 8.9137182 0
-7.3019919 5.8060784 -0.93039238 0
-9.2233572 7.2599249 -0.9689697 0
-38.150135 29.428877 -0.39481255 0
-38.007896 29.084757 5.1747169 0
-38.195988 29.011526 9.7533083 0
-7.3618855 5.7457676 -0.9321183 0
-31.235382 23.449011 11.834509 0
-38.292503 28.889437 5.1786098 0
-36.742058 27.522009 9.338171 0
-6.1659155 4.7663021 -0.91213512 0
-9.3331003 7.1094093 -0.9730289 0
-12.815339 9.6628981 -1.0660455 0
-37.600948 27.804581 6.1435032 0
-6.1908426 4.7210841 -0.91330636 0
-33.399078 24.380117 11.467635 0
-29.882444 22.013721 -0.25815603 0
-12.890131 9.5376253 -1.0693071 0
-33.738838 24.295853 10.488494 0
-42.310326 30.326658 10.528928 0
-12.979941 9.4273319 -1.0723156 0
-33.061138 23.347759 10.206104 0
-6.2706513 4.5853195 -0.91182983 0
-5.4849739 4.0062952 -0.92524302 0
-9.5425949 6.8033977 -0.98113322 0
-44.748909 30.832863 12.271595 0
-5.5099149 3.950901 -0.92162895 0
-7.5612626 5.3190112 -0.9328779 0
-13.139399 9.0514317 -1.0716361 0
-43.342754 29.031967 10.514042 0
-7.6111469 5.2285514 -0.93017995 0
-7.6210814 5.1834221 -0.93123817 0
-7.6360412 5.1381822 -0.9273206 0
-7.6509871 5.1030459 -0.92818916 0
-7.6759334 5.0678997 -0.929106 0
-7.6808691 5.0227742 -0.93013322 0
-7.7108212 4.9926219 -0.9309665 0
-7.7257628 4.9524875 -0.93193424 0
-7.740705 4.9123526 -0.93290055 0
-7.7556725 4.8721128 -0.92886627 0
-7.7756205 4.8369727 -0.92974901 0
-7.8005686 4.801826 -0.9306556 0
-7.8155174 4.7666907 -0.93151081 0
-7.8254557 4.7215624 -0.93254924 0
-7.85041 4.6914167 -0.93334615 0
-7.8753595 4.6562719 -0.93424606 0
-7.9003091 4.6211276 -0.93514454 0
-7.910254 4.580997 -0.93607259 0
-7.9251995 4.5408635 -0.93702316 0
-7.9451499 4.5057235 -0.93789256 0
-7.9651008 4.4705844 -0.9387604 0
-10.160862 5.6047382 -1.0009116 0
-13.927206 7.5482183 -1.0989068 0
-13.94711 7.4781065 -1.1005224 0
-13.972016 7.4079905 -1.1021589 0
-13.986921 7.3378835 -1.103744 0
-14.016857 7.2726598 -1.100297 0
-14.041764 7.2025442 -1.1019253 0
-14.086657 7.1425123 -1.1084399 0
-14.101589 7.0723019 -1.1050161 0
-14.126502 7.0071859 -1.1065331 0
-14.146412 6.9370756 -1.1081263 0
-14.146336 6.8568826 -1.104827 0
-5.9486389 2.9453597 -0.92595017 0
-5.948627 2.9151278 -0.92159259 0
-5.9585915 2.8849893 -0.92228091 0
-5.9735599 2.8598444 -0.92288971 0
-5.9885244 2.8297021 -0.92359972 0
-6.0034752 2.8096602 -0.92910266 0
-6.0134587 2.774421 -0.9248898 0
-6.018424 2.7442875 -0.92554832 0
-6.0133896 2.7141626 -0.92615807 0
-6.0383596 2.6890094 -0.926808 0
-6.0483308 2.663871 -0.92738509 0
-6.0582967 2.6337335 -0.92806304 0
-6.0782671 2.6085865 -0.92868555 0
-6.0632534 2.5733693 -0.92434525 0
-6.0782199 2.5432277 -0.92504334 0
-6.0731869 2.5131013 -0.92564571 0
-6.0881543 2.48296 -0.92634153 0
-6.1081262 2.4578135 -0.92695832 0
-6.1130981 2.4326794 -0.92750335 0
-6.1280665 2.4025383 -0.9281956 0
-10.823967 4.0906987 -1.0361538 0
-58.011673 20.96817 1.8639984 0
-8.4635401 3.1558833 -0.95897019 0
-8.4735012 3.1207557 -0.95973825 0
-8.4784813 3.0805326 -0.95558333 0
-58.770435 20.245165 -2.4803016 0
-7.0831509 2.5409462 -0.92993844 0
-8.5033712 2.9752178 -0.95784569 0
-8.5183344 2.9400856 -0.9586308 0
-8.5232916 2.8999634 -0.95946801 0
-8.5382509 2.8598332 -0.96035028 0
-8.553215 2.8247025 -0.96113074 0
-8.5581703 2.7795813 -0.96206343 0
-10.908366 3.4540327 -1.034485 0
-14.798776 4.5678444 -1.1352615 0
-58.127625 17.265232 -2.4673719 0
-8.6080341 2.6441274 -0.96501648 0
-8.6179991 2.6090007 -0.96576571 0
-14.913522 4.342535 -1.1452984 0
-56.815636 15.843182 1.7062131 0
-8.6529026 2.5086792 -0.96792758 0
-60.920036 16.489824 4.7408419 0
-6.2974868 1.8147537 -0.94088483 0
-8.6728086 2.4083672 -0.97001064 0
-11.01792 2.9728134 -1.0395824 0
-15.033129 3.9368823 -1.1538903 0
-56.61758 14.151343 0.30338266 0
-8.6976833 2.267921 -0.97290003 0
-11.057761 2.7973866 -1.0432222 0
-58.671501 13.896932 4.5049424 0
-8.7275991 2.1725912 -0.97490883 0
-11.087646 2.6670825 -1.0459118 0
-56.866295 12.851734 0.27682218 0
-7.3124094 1.7477471 -0.94682181 0
-7.3123846 1.7176182 -0.94740832 0
-7.3273554 1.6824785 -0.94815993 0
-15.127559 3.2707863 -1.1623367 0
-56.606167 11.566186 1.5933294 0
-6.3921542 1.4128333 -0.9491998 0
-6.3921499 1.3776044 -0.94488108 0
-6.4071078 1.352559 -0.95043147 0
-7.3522086 1.496756 -0.95186102 0
-11.167241 2.1557944 -1.0511633 0
-6.407074 1.2771297 -0.94688046 0
-7.3771472 1.4164182 -0.95351171 0
-15.067147 2.6897533 -1.158227 0
-6.402019 1.2018028 -0.94829893 0
-8.8221312 1.5655916 -0.98205292 0
-15.037028 2.5094304 -1.1565199 0
-60.788033 9.4357777 0.19390509 0
-11.136997 1.8099808 -1.0526125 0
-59.680012 8.8862228 -2.6271436 0
-7.3919859 1.1955746 -0.95777345 0
-11.126923 1.6796072 -1.0500264 0
-6.4269075 1.0108289 -0.94702768 0
-11.12189 1.6043432 -1.0464156 0
-41.896442 5.4918318 -1.7679992 0
-7.3819337 1.0548747 -0.95037377 0
-7.3918872 1.0198368 -0.9560746 0
-7.4118671 0.98969406 -0.95672297 0
-60.463375 6.9117146 -2.6924498 0
-7.3768535 0.9344281 -0.95259857 0
-60.418076 6.4767547 -2.695313 0
-8.8167973 1.0288069 -0.98210382 0
-14.901465 1.5877506 -1.1481653 0
-61.811459 5.8592253 1.5630625 0
-14.876394 1.4826173 -1.1499938 0
-65.590187 5.7217331 4.7047892 0
-7.3717575 0.74862874 -0.95100808 0
-14.8363 1.3072981 -1.1480371 0
-6.4466634 0.62409306 -0.95429957 0
-8.761673 0.76285112 -0.97675323 0
-11.021489 0.87742436 -1.0394149 0
-14.771189 1.0667962 -1.1421367 0
-6.4216256 0.51854789 -0.95111799 0
-8.7416096 0.62233782 -0.97422194 0
-11.021382 0.70202434 -1.0425962 0
-14.726062 0.82637668 -1.1412928 0
-7.3266315 0.45737129 -0.94611681 0
-14.711005 0.73123389 -1.1429344 0
-7.3266044 0.40717846 -0.94702101 0
-63.857513 2.277298 0.049060836 0
-8.7265062 0.40157455 -0.97313535 0
-14.675907 0.52585882 -1.1414646 0
-61.988235 1.4915336 1.4833184 0
-7.3165331 0.2716687 -0.94940603 0
-8.7314091 0.26123399 -0.98066306 0
-22.281654 0.36060965 0.19322726 0
-14.61078 0.26039603 -1.1408998 0
-14.585764 0.1902153 -1.1370363 0
-6.3914738 0.1366494 -0.94783831 0
-8.7063494 0.10066073 -0.97839928 0
-14.560676 0.024974708 -1.1398376 0
-14.520664 -0.040199213 -1.135808 0
-14.500631 -0.10528997 -1.1368611 0
-63.14159 -1.2030703 1.4559646 0
-6.3014669 -0.024315288 -0.93528354 0
-6.3364353 -0.04937363 -0.94086647 0
-6.3264227 -0.079501234 -0.94135046 0
-6.3114319 -0.10972082 -0.93681264 0
-7.271369 -0.17523736 -0.94706309 0
-7.2713542 -0.21036604 -0.94767332 0
-55.678581 -2.6430438 -2.6025975 0
-7.2663341 -0.26055709 -0.94851851 0
-8.6111803 -0.37096256 -0.97619641 0
-17.33091 -0.95771581 0.19148436 0
-17.2225 -0.98281729 -0.61361289 0
-8.5961723 -0.44629738 -0.97241831 0
-55.967972 -3.8076901 -2.6387465 0
-7.2412791 -0.40612796 -0.95090294 0
-10.720814 -0.71166748 -1.0360945 0
-6.2513742 -0.38114196 -0.93122113 0
-8.5561352 -0.60186654 -0.96989596 0
-14.240252 -1.1471692 -1.1336527 0
-6.2513309 -0.45138332 -0.93741143 0
-8.5361013 -0.69716793 -0.97141933 0
-14.290167 -1.3123572 -1.141646 0
-6.2263303 -0.52179676 -0.93349266 0
-8.5060701 -0.79246497 -0.97289252 0
-14.245109 -1.4725944 -1.1441367 0
-6.2163095 -0.59212595 -0.9346292 0
-8.4860601 -0.88786006 -0.96939921 0
-56.396584 -6.8166924 -2.7261307 0
-8.4710426 -0.94803989 -0.97034121 0
-14.175044 -1.7280697 -1.1430817 0
-6.1912818 -0.70265108 -0.93636036 0
-8.4410172 -1.0383394 -0.97170162 0
-14.159994 -1.8883224 -1.1456592 0
-6.1612854 -0.77306479 -0.93239844 0
-8.4110126 -1.1337309 -0.96814513 0
-14.284871 -2.0733593 -1.164247 0
-6.1412926 -0.83848184 -0.9283818 0
-8.375989 -1.2290283 -0.96955979 0
-64.332153 -10.524542 1.3440022 0
-8.3609962 -1.2843003 -0.9653939 0
-14.359749 -2.3536217 -1.1791464 0
-6.0912938 -0.94408965 -0.92488647 0
-8.3309784 -1.3746033 -0.96672499 0
-14.464636 -2.5386493 -1.1976013 0
-6.0762815 -1.0144185 -0.92596459 0
-8.3009605 -1.4649055 -0.96804905 0
-12.336565 -2.3130159 0.48067868 0
-12.110732 -2.2821589 -0.95804107 0
-12.130703 -2.3171315 -0.96369433 0
-12.090723 -2.3322635 -0.95874763 0
-6.961153 -1.3101761 -0.93963432 0
-14.649448 -2.9539351 -1.2250787 0
-14.694387 -3.0338812 -1.2365499 0
-14.714371 -3.1089976 -1.2378287 0
-62.32893 -13.906115 5.7394433 0
-6.9111528 -1.4508512 -0.93664825 0
-8.1759501 -1.776134 -0.96245134 0
-14.854227 -3.3840735 -1.262778 0
-6.8761644 -1.5262653 -0.93267846 0
-14.90918 -3.5091658 -1.2699934 0
-6.851162 -1.5664591 -0.9331888 0
-8.1259317 -1.9216371 -0.96450651 0
-8.1109476 -1.9568506 -0.95998597 0
-5.9312763 -1.4166018 -0.92169785 0
-10.340382 -2.6013982 -1.0551308 0
-56.670303 -15.056422 1.1514958 0
-6.7961702 -1.7172036 -0.93028188 0
-10.325347 -2.7216136 -1.0619164 0
-56.960155 -15.826514 1.1533405 0
-6.7611656 -1.7925292 -0.93128836 0
-10.300336 -2.8419161 -1.0636503 0
-6.7411637 -1.8377268 -0.93189228 0
-9.5326328 -2.6967015 -0.49781492 0
-8.0409012 -2.272851 -0.96953309 0
-9.4426546 -2.7369373 -0.49300447 0
-6.6911831 -1.9232047 -0.92796838 0
-9.3517685 -2.783155 -0.71833122 0
-6.6661825 -1.9683994 -0.92854667 0
-9.5112333 -2.9133408 0.4241181 0
-9.5717869 -2.9681475 1.8432072 0
-9.5285006 -2.9362836 -0.27140513 0
-9.5577211 -2.9923217 2.0828795 0
-9.6006975 -3.0478892 4.1221242 0
-9.5806065 -3.0302453 2.8223031 0
-9.5548906 -3.0098562 1.362582 0
-9.6076069 -3.0692389 3.3366563 0
-9.5126877 -3.0222864 2.0776446 0
-9.4044247 -2.970505 -0.036311567 0
-9.3176517 -2.9626262 -0.49085233 0
-7.9858713 -2.5336642 -0.97822261 0
-9.3226252 -3.0327148 -0.49692336 0
-6.6161833 -2.1341307 -0.93080831 0
-9.3067255 -3.0939004 -0.72779012 0
-9.3267202 -3.1239667 -0.72833085 0
-7.9558692 -2.6691155 -0.98011804 0
-9.3916683 -3.2189896 -0.74005616 0
-15.773352 -5.5546184 -1.4400883 0
-15.893274 -5.6794963 -1.45751 0
-15.943246 -5.7795305 -1.4642252 0
-5.6463718 -1.9950538 -0.90915406 0
-6.5012193 -2.3452079 -0.92840004 0
-7.8558826 -2.8949461 -0.98297954 0
-9.9703436 -3.7594059 -1.0708451 0
-16.063128 -6.1996202 -1.4959667 0
-16.068108 -6.2896438 -1.5023141 0
-16.078087 -6.3746705 -1.5085914 0
-16.058094 -6.4497781 -1.5095783 0
-16.058094 -6.5398865 -1.5108967 0
-5.5364208 -2.2012982 -0.90664589 0
-5.5014472 -2.2165151 -0.9016968 0
-5.4864521 -2.2366517 -0.9019078 0
-5.4814553 -2.2667894 -0.90232587 0
-5.4764404 -2.2918427 -0.90765727 0
-5.4464655 -2.3120623 -0.90280902 0
-5.4364705 -2.3371997 -0.90312052 0
-5.426475 -2.3623371 -0.90343118 0
-5.4164801 -2.3874748 -0.903741 0
-5.4014854 -2.4126112 -0.90403104 0
-5.3914919 -2.4327497 -0.90425479 0
-5.3615174 -2.4529693 -0.89940274 0
-5.3665028 -2.4830253 -0.90484893 0
-5.3365293 -2.5032437 -0.8999964 0
-5.3315349 -2.5283828 -0.90031981 0
-7.4710345 -3.6278872 -0.98163557 0
-7.3318748 -3.609081 0.57953978 0
-9.8902407 -4.9163098 -1.1370162 0
-5.2915549 -2.5987971 -0.90110695 0
-7.2261591 -3.6360207 0.38467979 0
-7.1918678 -3.6442356 0.57475382 0
-5.2615666 -2.6290028 -0.9013778 0
-6.0714374 -3.0690854 -0.91667271 0
-7.1118569 -3.6642966 0.56988347 0
-9.8752337 -5.1416454 -1.1500969 0
-5.2365832 -2.6943488 -0.90216815 0
-6.021462 -3.1494894 -0.917539 0
-6.0164695 -3.1796281 -0.91792297 0
-7.3311114 -3.939069 -0.98524773 0
-7.3311 -3.9841187 -0.99087429 0
-7.3161111 -4.0142512 -0.99119687 0
-7.3011193 -4.0543823 -0.99168348 0
-7.2761312 -4.0845137 -0.9919672 0
-7.2611418 -4.119647 -0.99236751 0
-7.2411523 -4.1547785 -0.99274957 0
-7.2261634 -4.1899114 -0.9931488 0
-7.2011752 -4.2200427 -0.99342835 0
-7.1811876 -4.250175 -0.99372542 0
-7.1711802 -4.290226 -0.99922025 0
-7.1462111 -4.3204412 -0.99449611 0
-7.1262245 -4.3505745 -0.99478972 0
-7.111218 -4.3856258 -1.0001812 0
-7.0912304 -4.4207587 -1.000554 0
-7.0762434 -4.4558921 -1.0009437 0
-7.0512571 -4.4860249 -1.0012149 0
-7.0312715 -4.5161605 -1.0015019 0
-7.016284 -4.5562935 -1.0019691 0
-6.9912992 -4.5814276 -1.0021564 0
-6.971313 -4.6165605 -1.0025227 0
-6.9513268 -4.6516948 -1.0028875 0
-6.926343 -4.6768289 -1.0030723 0
-6.9013577 -4.7119641 -1.0034157 0
-6.8813734 -4.7420988 -1.0036969 0
-6.8514071 -4.7673135 -0.99886203 0
-6.8314047 -4.8023677 -1.0042208 0
-6.8014388 -4.8275828 -0.99938428 0
-6.7664566 -4.8477178 -0.9994489 0
-6.736474 -4.8728547 -0.99960911 0
-15.008592 -11.078882 -1.6926242 0
-5.4468465 -3.9790311 -0.92062068 0
-6.6665339 -4.9432726 -0.99514818 0
-6.6415515 -4.9684086 -0.99532473 0
-6.6115685 -4.9935455 -0.99548209 0
-6.5915809 -5.0236921 -0.99574327 0
-6.5665927 -5.0588365 -0.99606669 0
-6.5366054 -5.0839815 -0.9962132 0
-6.5166178 -5.1141267 -0.99647272 0
-6.4966302 -5.1442723 -0.99673116 0
-6.4666433 -5.1694179 -0.99687517 0
-6.4516559 -5.2045646 -0.997226 0
-6.421669 -5.2347097 -0.99744678 0
-6.3966827 -5.2598553 -0.99760568 0
-6.3816953 -5.2950029 -0.99795246 0
-6.3517089 -5.3201489 -0.99809241 0
-6.3367219 -5.3552947 -0.99843872 0
-6.3017359 -5.3804421 -0.99855781 0
-6.2817497 -5.4105883 -0.99880672 0
-6.2567635 -5.4457345 -0.99911535 0
-6.2417769 -5.4758806 -0.99937916 0
-6.2217736 -5.5109491 -1.0047017 0
-6.1967878 -5.5410962 -1.0049293 0
-6.171803 -5.5712447 -1.0051541 0
-6.1418347 -5.5914698 -1.0002089 0
-6.1168323 -5.6265388 -1.00551 0
-6.0968471 -5.6566858 -1.0057508 0
-6.05688 -5.6719112 -1.0006928 0
-6.0418773 -5.7119808 -1.0061011 0
-6.0118928 -5.7371287 -1.0062283 0
-5.9969077 -5.7722759 -1.0065581 0
-5.9719229 -5.802424 -1.0067766 0
-13.289506 -13.143134 -1.7131898 0
-4.11236 -4.0241275 -0.88819385 0
-8.426055 -8.4141808 -1.2743664 0
-13.12959 -13.283496 -1.7138916 0
-50.2924 -51.595695 -2.3438406 0
-5.8519859 -5.9480901 -1.0127925 0
-8.3111143 -8.5746202 -1.2806106 0
-8.2611389 -8.5947704 -1.2805172 0
-8.2161627 -8.6299191 -1.2806668 0
-8.1811857 -8.6700668 -1.2809238 0
-8.1312265 -8.6952953 -1.2759023 0
-8.0862494 -8.730444 -1.2760489 0
-8.0512733 -8.7705927 -1.2763025 0
-7.9962974 -8.7957439 -1.2762641 0
-7.9613214 -8.8358927 -1.276516 0
-12.444979 -13.990103 -1.7230494 0
-12.385016 -14.050252 -1.7233744 0
-12.325053 -14.105401 -1.7236266 0
-12.250091 -14.155551 -1.7237539 0
-17.459509 -20.392973 -1.9630284 0
-3.7176216 -4.2970133 -0.87898958 0
-3.7026346 -4.3171649 -0.87912655 0
-3.6776481 -4.3323174 -0.87915671 0
-3.6576617 -4.3524714 -0.8792752 0
-3.6326752 -4.3626251 -0.8792305 0
-3.6126885 -4.3777776 -0.87927544 0
-3.587702 -4.3879309 -0.87923062 0
-3.5777156 -4.4180818 -0.87952745 0
-3.5577292 -4.4332352 -0.87957084 0
-5.1474347 -6.5117841 -1.0050086 0
-5.1224375 -6.541862 -1.0102003 0
-7.2067733 -9.3285561 -1.2674129 0
-7.1617994 -9.3587093 -1.2674676 0
-7.106842 -9.3739386 -1.2622719 0
-11.125751 -14.863143 -1.7096537 0
-11.055793 -14.908299 -1.7096996 0
-15.705471 -21.415705 -1.9433866 0
-3.3678646 -4.5496182 -0.8746767 0
-3.882838 -5.3094459 -0.90217876 0
-3.852854 -5.3246002 -0.90216756 0
-3.8278701 -5.3397536 -0.90217161 0
-4.7876582 -6.7685471 -1.0056305 0
-14.732829 -21.186129 -1.273927 0
-3.7579265 -5.3752127 -0.89712 0
-4.7027078 -6.8039346 -1.0054413 0
-4.6677279 -6.8240895 -1.0054482 0
-4.6377482 -6.8492436 -1.0055417 0
-4.5977836 -6.8594713 -1.0003896 0
-4.5678048 -6.8796277 -1.0004088 0
-6.3922844 -9.7614241 -1.2519367 0
-9.966444 -15.415812 -1.688156 0
-9.9014874 -15.46597 -1.6882781 0
-9.8115292 -15.486135 -1.6878967 0
-9.7365732 -15.521296 -1.6877738 0
-9.6566324 -15.551531 -1.6825607 0
-9.5716753 -15.571695 -1.6821944 0
-9.4817333 -15.586931 -1.676743 0
-9.4067774 -15.622095 -1.6766183 0
-9.3068342 -15.612334 -1.6707857 0
-9.2268772 -15.647498 -1.6706468 0
-9.1519222 -15.682663 -1.6705163 0
-9.0669804 -15.7029 -1.6651517 0
-8.9720383 -15.703139 -1.659477 0
-8.9070826 -15.743301 -1.6594504 0
-8.7971392 -15.723544 -1.6534535 0
-8.7171831 -15.748712 -1.6531732 0
-8.6372423 -15.773949 -1.6478891 0
-8.5422993 -15.779189 -1.6422873 0
-8.4673443 -15.804355 -1.6420218 0
-8.3873882 -15.829523 -1.6417413 0
-8.3224335 -15.879685 -1.6418506 0
-8.2474794 -15.914852 -1.6417216 0
-8.1525364 -15.915095 -1.6360483 0
-8.0725813 -15.935265 -1.6356982 0
-7.9826384 -15.935506 -1.6300452 0
-7.9076829 -15.960674 -1.6297786 0
-2.4877586 -5.0257902 0.60104167 0
-4.9781928 -10.201419 -1.2069881 0
-3.5484748 -7.2944856 -0.97802532 0
-2.8385386 -5.8556814 -0.89125073 0
-2.8285484 -5.870759 -0.89135587 0
-2.8135571 -5.8708391 -0.89124203 0
-2.8035672 -5.8859167 -0.89134681 0
-2.3685746 -4.9965453 -0.84792769 0
-2.368165 -5.0381289 0.73178422 0
-2.3581657 -5.0431914 0.73180914 0
-2.3327739 -5.0214305 0.59722924 0
-2.3123982 -5.0097384 0.46749848 0
-2.3420355 -5.1180315 0.33600134 0
-7.2030525 -15.992433 -1.5999647 0
-7.1630659 -15.992526 -1.5996388 0
-2.2562821 -5.0147476 0.077814579 0
-2.2470319 -5.0283189 0.33774745 0
-2.2427814 -5.0518827 0.59753168 0
-2.2336359 -5.0374384 -0.84738445 0
-2.6136649 -5.9370451 -0.88550758 0
-3.2236392 -7.3860312 -0.97165012 0
-2.1848063 -5.0181231 -0.44175294 0
-2.1598215 -4.9932714 -0.43628338 0
-2.1590726 -5.0247931 -0.70166457 0
-2.1624193 -5.0855942 0.46775091 0
-2.4587631 -5.8379726 -0.85820508 0
-3.0737085 -7.4167671 -0.96587014 0
-3.0437236 -7.4369316 -0.96586347 0
-6.4183664 -15.979508 -1.5638229 0
-9.1138592 -22.997053 -1.784157 0
-2.0287404 -5.1088905 -0.84165108 0
-2.0087519 -5.124052 -0.84166539 0
-2.3138075 -5.9888263 -0.87381709 0
-2.2788315 -5.9840589 -0.86850345 0
-2.258832 -6.0141535 -0.87369215 0
-2.2338452 -6.0343161 -0.87373483 0
-2.2038572 -6.0444808 -0.87363183 0
-2.1788695 -6.0546441 -0.87354255 0
-2.1488812 -6.0598111 -0.8733722 0
-2.1238937 -6.0749745 -0.873348 0
-2.0889046 -6.0751405 -0.87310076 0
-2.0639169 -6.0853043 -0.87301099 0
-2.0339277 -6.0854702 -0.8727777 0
-2.003953 -6.0907001 -0.86760986 0
-2.443979 -7.5598249 -0.95266116 0
-2.4040062 -7.5650582 -0.9474293 0
-2.3690202 -7.5752254 -0.94727516 0
-2.334034 -7.5803928 -0.94705677 0
-3.1639915 -10.468057 -1.1512003 0
-13.141287 -44.392502 -2.4876983 0
-2.2440667 -7.585813 -0.94640899 0
-3.0340471 -10.46356 -1.1451334 0
-4.4791298 -15.749855 -1.4662075 0
-1.4889996 -5.2476254 -0.82910132 0
-2.1141298 -7.616466 -0.94078529 0
-4.2742004 -15.720387 -1.4592997 0
-1.4190345 -5.2281036 -0.82334101 0
-2.0241628 -7.6218877 -0.94014072 0
-4.0742812 -15.675985 -1.4472214 0
-1.359061 -5.243515 -0.82305193 0
-1.9391979 -7.6423087 -0.93969858 0
-1.8942218 -7.6275434 -0.93420446 0
-3.7893939 -15.596834 -1.4291096 0
-1.2690958 -5.2490921 -0.82243228 0
-1.8092583 -7.6579618 -0.93389165 0
-3.5894618 -15.562366 -1.4221847 0
-1.214124 -5.2745023 -0.82228243 0
-1.719293 -7.6733851 -0.93337524 0
-3.3945394 -15.507963 -1.4100374 0
-1.1591414 -5.3148484 -0.82731819 0
-1.6293268 -7.6838074 -0.9327997 0
-5.0703211 -24.534039 -1.7951918 0
-1.5743471 -7.6890631 -0.93243814 0
-1.0741913 -5.2804742 -0.81628227 0
-4.8354025 -24.519508 -1.7881918 0
-1.5043744 -7.6994009 -0.93200934 0
-2.9297149 -15.38934 -1.3850843 0
-1.0092051 -5.34584 -0.82653379 0
-1.4144194 -7.6998858 -0.92631543 0
-2.734786 -15.309937 -1.3726724 0
-0.94922191 -5.3761911 -0.8314271 0
-1.319451 -7.695313 -0.9255476 0
-2.5448604 -15.250531 -1.3605272 0
-0.88924831 -5.3866048 -0.83107674 0
-1.2294958 -7.6957984 -0.91985881 0
-2.3499334 -15.191124 -1.3483856 0
-0.82428658 -5.3920798 -0.82565415 0
-1.1395279 -7.6962247 -0.91917038 0
-2.1600029 -15.11172 -1.3360243 0
-0.76431304 -5.4024949 -0.82530391 0
-1.0495707 -7.6867108 -0.91336656 0
-1.9750614 -15.047252 -1.3288748 0
-0.70432872 -5.4228477 -0.83007538 0
-0.95960349 -7.6921353 -0.91274619 0
-1.7951336 -14.992841 -1.3168696 0
-0.63936418 -5.4133244 -0.82447636 0
-0.86963362 -7.6825619 -0.91194868 0
-1.6152006 -14.913431 -1.304579 0
-0.57438797 -5.408741 -0.82393944 0
-0.77967596 -7.6730475 -0.90615535 0
-1.4352583 -14.853961 -1.2975392 0
-0.50941259 -5.4091573 -0.82346427 0
-0.68971735 -7.6585355 -0.90030503 0
-1.2603251 -14.779551 -1.285345 0
-0.44944957 -5.4096332 -0.8180021 0
-0.59974897 -7.6589613 -0.89963698 0
-1.0803901 -14.70014 -1.2730967 0
-0.38447508 -5.4150491 -0.81758881 0
-0.50978881 -7.6394477 -0.89373803 0
-0.91044718 -14.64567 -1.2661744 0
-0.32449782 -5.4054675 -0.81701314 0
-0.41981944 -7.6348767 -0.89301598 0
-0.7404989 -14.5662 -1.2589738 0
-0.25952151 -5.400887 -0.81648624 0
-0.33484906 -7.6253047 -0.89225137 0
-0.57056665 -14.511786 -1.2470798 0
-0.19455807 -5.4013638 -0.81101978 0
-0.2448885 -7.605793 -0.88636398 0
-0.40061712 -14.432315 -1.2399074 0
-0.13458148 -5.39678 -0.81051099 0
-0.15991667 -7.5912199 -0.88555241 0
-0.23567657 -14.3429 -1.2276498 0
-0.074604854 -5.3921976 -0.81000423 0
-0.069957733 -7.5817075 -0.87978828 0
-0.070725761 -14.26343 -1.2205174 0
-0.0096283164 -5.3876176 -0.80948675 0
0.020015331 -7.5621371 -0.87891626 0
0.094217353 -14.169014 -1.2082336 0
0.069996722 -7.5623932 -0.87854016 0
0.3229081 -24.594213 -1.7196575 0
0.10017339 -6.2531209 -0.82847452 0
0.19966929 -9.7768517 -0.97767019 0
0.58286715 -23.780403 -1.6534991 0
0.17513806 -6.2386022 -0.82277763 0
0.30963036 -9.7273502 -0.97129989 0
0.82283193 -22.916637 -1.5819371 0
0.24511455 -6.2240243 -0.8220973 0
0.41959783 -9.7027912 -0.97021556 0
1.0528001 -22.117804 -1.516221 0
0.31508794 -6.2294478 -0.82163858 0
0.52956611 -9.6582928 -0.96390045 0
1.2577955 -21.358957 -1.4510556 0
0.39007059 -6.2298727 -0.82110202 0
0.63954592 -9.5937939 -0.95736539 0
1.4528025 -20.674986 -1.3968312 0
0.46005654 -6.2152982 -0.82041359 0
0.74452156 -9.5492935 -0.95106816 0
1.6527901 -20.190889 -1.3548584 0
0.53003919 -6.2157221 -0.81989336 0
0.84949088 -9.484848 -0.93956482 0
1.857772 -19.891615 -1.3299496 0
0.60002643 -6.1961474 -0.81915855 0
0.95446819 -9.4353466 -0.93323195 0
2.0627582 -19.677227 -1.3159944 0
0.67000258 -6.1766281 -0.81342697 0
1.0594558 -9.390789 -0.9319638 0
2.2727375 -19.497835 -1.3024416 0
0.73998886 -6.1620526 -0.81275499 0
1.1594349 -9.3362837 -0.92560911 0
2.4827023 -19.383442 -1.2896036 0
0.81497276 -6.1574798 -0.81218052 0
1.2594131 -9.2867804 -0.91931427 0
2.6976807 -19.308937 -1.287203 0
0.87996143 -6.1329036 -0.81142032 0
1.3643905 -9.2422762 -0.91307271 0
2.9126511 -19.269432 -1.2851863 0
0.95494664 -6.1233301 -0.81080127 0
1.4643681 -9.197772 -0.90684819 0
0.86011291 -5.2687035 -0.79182673 0
1.5293595 -9.1780367 -0.9061811 0
3.2775927 -19.255228 -1.282446 0
1.0599179 -6.0840626 -0.80459869 0
1.629347 -9.1384773 -0.90502405 0
3.5075574 -19.285669 -1.2861497 0
1.1299045 -6.0694895 -0.80394697 0
1.7243286 -9.0789719 -0.89867604 0
3.7425196 -19.326117 -1.2899444 0
1.1948936 -6.0449138 -0.80320799 0
2.4737313 -12.273534 -1.014423 0
1.0800643 -5.2352219 -0.78992689 0
1.4946384 -7.1402373 -0.8234551 0
2.5987072 -12.174096 -1.0024339 0
1.135044 -5.2106957 -0.78426194 0
1.5746192 -7.1007204 -0.81747556 0
12.480872 -55.831654 -0.25966188 0
4.352447 -19.177513 -1.2840304 0
1.6396093 -7.0810642 -0.81681824 0
2.8136857 -11.980019 -0.98876762 0
1.424836 -5.9614615 -0.79071307 0
4.4524808 -18.41861 -1.2248498 0
1.464831 -5.9417181 -0.79022849 0
4.4974976 -18.089102 -1.2008163 0
1.774582 -7.0168881 -0.81017184 0
6.1407375 -24.025993 -1.1062051 0
2.2742326 -8.7517767 -0.86624587 0
1.3600016 -5.1422982 -0.78199708 0
3.1036496 -11.641452 -0.9580251 0
1.59481 -5.8925662 -0.78880537 0
4.7075267 -17.220613 -1.1347067 0
1.9245554 -6.9377975 -0.80329072 0
6.2459269 -22.297709 -1.0111685 0
2.4542012 -8.6277533 -0.85366762 0
1.474979 -5.1081424 -0.78085244 0
3.29863 -11.312602 -0.92807949 0
1.7197745 -5.823514 -0.777215 0
4.9425354 -16.586958 -1.0860772 0
2.0845344 -6.8786583 -0.80161357 0
6.3110976 -20.699383 -0.91790676 0
2.6341789 -8.5136786 -0.84622693 0
1.5949543 -5.0839872 -0.77981019 0
3.4886136 -11.023695 -0.90362275 0
1.8597592 -5.7943163 -0.78100622 0
5.1975341 -16.093197 -1.0489254 0
2.2295091 -6.7995629 -0.79479825 0
14.925087 -45.310421 -1.2358214 0
5.2925406 -15.888669 -1.0360476 0
2.8191526 -8.3647356 -0.8333869 0
1.7199329 -5.0349159 -0.77847672 0
3.7135909 -10.789824 -0.88458836 0
1.9797331 -5.6803427 -0.76897728 0
5.4575438 -15.549515 -1.011251 0
2.3894837 -6.7105546 -0.78781152 0
7.2760477 -20.316422 -0.90750933 0
3.8535769 -10.640544 -0.87206173 0
2.4444771 -6.6808977 -0.78712833 0
1.8399073 -4.9658923 -0.77198482 0
10.019827 -27.104546 1.3949069 0
9.7551413 -26.194145 1.3582817 0
9.8738413 -26.365484 2.0222161 0
1.8848977 -4.9562292 -0.77159202 0
2.1496999 -5.6114941 -0.76219475 0
2.5444601 -6.6165438 -0.7808218 0
3.1491144 -8.1464872 -0.81895125 0
5.7925534 -14.9561 -0.97263539 0
7.5861139 -19.477877 -0.8613658 0
10.162623 -25.982483 0.0580042 0
10.166451 -25.838575 0.70466959 0
10.568675 -26.726419 2.0625017 0
1.9748756 -4.9119515 -0.7655791 0
2.6394434 -6.5521898 -0.77453792 0
4.1735578 -10.322109 -0.85162008 0
7.7161613 -19.028572 -0.84065986 0
10.341548 -25.428917 0.70521677 0
10.668902 -26.096392 2.0349894 0
2.0248709 -4.8723717 -0.76485467 0
2.7244315 -6.53262 -0.77384341 0
4.2685528 -10.217598 -0.84491491 0
7.816195 -18.66917 -0.82111609 0
11.066245 -26.354633 0.7244364 0
10.923979 -25.876625 2.0289192 0
2.3596709 -5.5179348 -0.75990629 0
4.343545 -10.143 -0.83864415 0
6.1525745 -14.302855 -0.93333864 0
7.9112306 -18.304766 -0.80157852 0
11.346271 -26.185041 0.72795093 0
10.974229 -25.196545 1.9966348 0
11.377707 -25.98328 2.7155058 0
2.4346638 -5.4734435 -0.75900757 0
3.4940715 -7.8435817 -0.79359651 0
4.4785395 -10.013663 -0.83145106 0
6.3075743 -14.048631 -0.91465712 0
8.0462847 -17.830536 -0.78063488 0
11.692542 -25.819584 0.068861082 0
8.0862989 -17.695765 -0.77395225 0
6.3875785 -13.879088 -0.90236843 0
4.5885344 -9.8992395 -0.82456863 0
2.9644015 -6.3343306 -0.76027858 0
2.2648318 -4.7841458 -0.76252687 0
8.1963358 -17.316441 -0.75420082 0
4.6735244 -9.7897692 -0.81290281 0
3.0243933 -6.2698002 -0.75425601 0
2.3148263 -4.7495656 -0.76187563 0
6.5875974 -13.505129 -0.88217998 0
3.0693858 -6.2151856 -0.74842227 0
8.3413944 -16.822292 -0.73306072 0
3.8040481 -7.5854034 -0.77906716 0
2.3948133 -4.7201581 -0.76112294 0
4.8685198 -9.5658255 -0.79942787 0
2.7346213 -5.310605 -0.75057995 0
6.792613 -13.151166 -0.86225963 0
3.2243752 -6.1659966 -0.75206244 0
8.5414486 -16.283363 -0.70618951 0
3.9590364 -7.4613123 -0.77190757 0
2.4998012 -4.6560016 -0.75988567 0
5.0335183 -9.3517885 -0.78626168 0
2.844605 -5.2264948 -0.74410105 0
6.9776278 -12.77724 -0.83729851 0
3.3343594 -6.0419316 -0.74015093 0
8.7315016 -15.759428 -0.67961109 0
4.1040287 -7.3272166 -0.76471949 0
2.6097841 -4.6118464 -0.75883365 0
5.1985149 -9.1527491 -0.7732861 0
2.9545879 -5.1473813 -0.73769224 0
7.1526508 -12.418262 -0.81758523 0
3.4643519 -5.9527831 -0.73854101 0
8.9065638 -15.25044 -0.65832198 0
4.2490129 -7.1931629 -0.75257182 0
2.7097743 -4.5426869 -0.75760484 0
5.363524 -8.9586639 -0.76540387 0
3.0645843 -5.0682249 -0.73630166 0
7.3126936 -12.054268 -0.79792154 0
4.3440261 -7.0987601 -0.75107646 0
3.1145852 -5.0435615 -0.73579347 0
9.3695269 -15.17682 0.58493459 0
9.3795481 -15.111887 0.58565903 0
7.4077287 -11.839871 -0.78518617 0
3.659359 -5.7891765 -0.73083568 0
38.502773 -60.89542 -0.16103691 0
9.1867323 -14.407106 -0.62303078 0
7.4827533 -11.670386 -0.77301502 0
3.7243643 -5.7445989 -0.73004985 0
3.7393644 -5.7396832 -0.72992361 0
3.7543657 -5.7297683 -0.72975636 0
4.5240502 -6.8850284 -0.73794889 0
7.5627875 -11.495858 -0.76582026 0
9.2968016 -14.082779 -0.60909891 0
12.417572 -18.773645 1.1977496 0
12.056165 -18.156666 2.187448 0
2.9597793 -4.3897023 -0.7547785 0
3.844367 -5.6952763 -0.72896385 0
4.5990586 -6.7955747 -0.73165762 0
5.7335949 -8.4410038 -0.73315406 0
7.6728263 -11.266541 -0.75291395 0
9.3618803 -13.69348 -0.5897733 0
12.972526 -18.949343 1.2186321 0
13.087496 -19.024509 1.2284112 0
12.846827 -18.593544 1.7317277 0
13.05089 -18.813154 2.2904997 0
12.625394 -18.116636 2.735647 0
3.0647802 -4.3305397 -0.75367463 0
3.949378 -5.5761518 -0.72223759 0
5.8536263 -8.2568054 -0.72567713 0
9.4869528 -13.35423 -0.57568538 0
12.907833 -18.139549 1.1966352 0
3.0997822 -4.3008747 -0.75320101 0
5.8936324 -8.1920996 -0.71983373 0
12.928705 -17.975489 0.67334491 0
12.984632 -18.031324 3.2832654 0
4.0193877 -5.5116558 -0.72126269 0
5.9386454 -8.1323547 -0.71902966 0
9.5420189 -13.044804 -0.56228936 0
13.401965 -18.309366 1.7472368 0
13.689308 -18.647644 3.4102566 0
4.054389 -5.4570279 -0.71554637 0
5.9836574 -8.0427294 -0.71291029 0
9.6170502 -12.895179 -0.55544198 0
13.578663 -18.176237 0.68429911 0
13.303005 -17.73024 1.1975861 0
13.26726 -17.614286 1.7086476 0
3.2047846 -4.1969151 -0.74668777 0
4.1144013 -5.3825283 -0.71452975 0
4.9391074 -6.4378476 -0.71645939 0
6.0736804 -7.8983588 -0.70605445 0
9.6921177 -12.580832 -0.54192448 0
35.40699 -45.892887 -0.021699369 0
14.153656 -18.246969 0.69616365 0
36.660351 -47.155693 4.1465125 0
36.845345 -47.175838 4.1571331 0
3.2847953 -4.1425443 -0.75080216 0
3.6896224 -4.6379166 -0.72897494 0
3.3047948 -4.1327109 -0.75061202 0
36.870701 -46.330589 4.1206636 0
36.87579 -46.105534 4.112884 0
36.950844 -45.99054 4.1093602 0
36.475224 -45.129227 1.3406345 0
36.352341 -44.743946 -0.0061758757 0
36.752262 -45.044121 -0.0074017942 0
37.03223 -45.15926 -0.0073923171 0
9.8622646 -11.932176 -0.5197643 0
9.892271 -11.912261 -0.5194459 0
8.3130693 -9.9555521 -0.69184399 0
5.1791463 -6.1445994 -0.70255291 0
3.4298019 -4.0337968 -0.74913633 0
6.3387518 -7.4353538 -0.68037224 0
3.8546338 -4.479372 -0.72173762 0
8.4031057 -9.7412148 -0.6793921 0
4.4444337 -5.0999084 -0.70538068 0
9.9873734 -11.433263 -0.49939069 0
5.2941647 -6.0054717 -0.69572854 0
3.5098035 -3.9446657 -0.74295592 0
6.4487824 -7.2262578 -0.6679132 0
3.9546435 -4.3902044 -0.72048795 0
8.5281639 -9.4371252 -0.6659832 0
4.5644469 -5.0007453 -0.70397031 0
10.077469 -11.014142 -0.48503092 0
5.4091835 -5.8613424 -0.68890965 0
3.5948126 -3.8554976 -0.7417959 0
6.5638208 -7.0171256 -0.66050494 0
4.0446577 -4.2860332 -0.71917284 0
8.6232262 -9.1180258 -0.65259278 0
4.6594672 -4.8765745 -0.70244706 0
10.172551 -10.620053 -0.46595696 0
5.5342088 -5.7221775 -0.68715644 0
4.124661 -4.236619 -0.7184149 0
38.741997 -39.886616 1.3400873 0
8.6982737 -8.8637562 -0.63995194 0
6.71386 -6.798161 -0.65290463 0
6.7288628 -6.7832441 -0.65271187 0
6.7388668 -6.7633262 -0.65249097 0
5.6292286 -5.6128469 -0.68580401 0
4.7894788 -4.7476096 -0.69578671 0
4.1946707 -4.1273999 -0.71218038 0
4.2096763 -4.127449 -0.71712124 0
4.2146773 -4.1175303 -0.71700561 0
39.814053 -38.968475 0.06231831 0
10.257704 -9.9564238 -0.4445174 0
6.833899 -6.584105 -0.64552057 0
4.8644948 -4.6482706 -0.69463086 0
3.8248332 -3.6277416 -0.73889184 0
40.719116 -38.784138 0.067112282 0
8.8433723 -8.3402882 -0.61465907 0
5.7892566 -5.419045 -0.67849565 0
4.3196912 -4.0084438 -0.71568549 0
10.770902 -10.016614 0.91174769 0
10.796816 -9.9769936 0.22713204 0
10.846364 -9.9844313 0.57225001 0
10.815939 -9.9168043 0.91277456 0
10.820953 -9.8768654 0.91314733 0
8.9284277 -8.0810566 -0.60706794 0
5.004519 -4.48943 -0.69275486 0
10.387853 -9.2829828 -0.41805747 0
5.9192882 -5.2450385 -0.67653883 0
3.9448457 -3.4591806 -0.73202527 0
7.0689702 -6.1859055 -0.6312201 0
4.4447055 -3.8497167 -0.708902 0
10.437909 -9.0385656 -0.41075113 0
5.9893022 -5.1356497 -0.67038131 0
4.0098486 -3.4097607 -0.73139501 0
9.0934992 -7.7172756 -0.59338033 0
6.0293136 -5.0759797 -0.66974807 0
4.5147152 -3.7703779 -0.70801091 0
12.789705 -10.709243 1.7869617 0
9.1435299 -7.5876818 -0.5921129 0
6.0893259 -5.0063944 -0.66898751 0
4.5547228 -3.7157896 -0.70743632 0
4.0898571 -3.3205884 -0.73040879 0
12.394518 -10.106443 2.1009822 0
12.764874 -10.349415 1.7649518 0
13.535122 -10.917594 1.4423201 0
12.865355 -10.33709 1.3853374 0
12.775405 -10.212056 1.3761252 0
12.810416 -10.187119 1.3764207 0
12.76045 -10.102128 1.3719965 0
12.760473 -10.05715 1.3673754 0
12.815474 -10.047249 1.3725963 0
12.220239 -9.5391254 1.6852083 0
12.564686 -9.7768688 2.0942073 0
12.764635 -9.882122 2.1188688 0
12.6497 -9.7520113 2.0996423 0
12.454796 -9.551816 2.0707598 0
13.28355 -10.152843 2.9830682 0
4.6997457 -3.5371933 -0.70557547 0
6.2743716 -4.722991 -0.66112435 0
9.3736362 -7.0494919 -0.57199657 0
13.075569 -9.8278313 1.3800961 0
12.43535 -9.3046274 1.6877018 0
12.894318 -9.61485 2.4964073 0
4.2298818 -3.1073177 -0.72829795 0
6.3193855 -4.6484003 -0.66040182 0
13.832313 -10.178637 -0.16587624 0
12.814862 -9.4174671 2.097784 0
4.2598844 -3.0825667 -0.72803104 0
6.3443956 -4.593646 -0.65991402 0
10.768199 -7.801712 -0.3745127 0
12.999866 -9.4177399 2.1132455 0
4.7797623 -3.4180956 -0.70441544 0
7.5491219 -5.3995023 -0.61335003 0
12.56091 -9.0028362 1.3204328 0
4.2898893 -3.0329783 -0.72756302 0
13.362053 -9.5278215 4.5382853 0
13.550214 -9.6260719 1.7879305 0
13.288515 -9.4152966 3.3089461 0
13.302155 -9.3976183 4.5041738 0
13.685206 -9.6312933 1.8032203 0
13.283572 -9.3202925 3.2996802 0
13.342198 -9.337656 4.504745 0
12.490217 -8.7023869 2.0226531 0
4.8447738 -3.3287547 -0.70357132 0
7.6441503 -5.2601581 -0.61203086 0
13.054636 -9.0203381 2.4715331 0
5.5646248 -3.7992203 -0.6855371 0
10.878286 -7.4376817 -0.36638197 0
4.3398952 -2.9387448 -0.72171438 0
6.4794326 -4.3897953 -0.65798783 0
13.505412 -9.181345 1.766295 0
5.5646291 -3.7444913 -0.68011463 0
10.89831 -7.342916 -0.36560282 0
12.714877 -8.5700016 2.3992238 0
13.338354 -8.9627171 3.6626029 0
13.576738 -9.0796843 0.62219214 0
13.208876 -8.8301754 3.2383144 0
13.562607 -9.0152245 -0.13737828 0
12.524615 -8.3169432 2.7157342 0
7.7291808 -5.0859213 -0.60550547 0
14.065364 -9.287076 1.8167578 0
4.4099064 -2.8693776 -0.72603679 0
6.5494514 -4.2604804 -0.65185642 0
13.346034 -8.7192736 1.3594548 0
13.693805 -8.9309492 3.3236272 0
9.7987928 -6.3370624 -0.56041253 0
13.865078 -8.9792986 2.1736588 0
13.678428 -8.8332624 3.7093377 0
9.833807 -6.2971983 -0.56503725 0
12.870837 -8.2461796 1.6719936 0
13.799313 -8.8138447 2.9347882 0
5.6646576 -3.5705559 -0.67859495 0
11.013404 -6.9539599 -0.35741434 0
12.535604 -7.9130421 1.9837704 0
4.9797997 -3.1004233 -0.69655502 0
9.8938313 -6.1726356 -0.55899417 0
13.477765 -8.3962069 -0.12291175 0
13.47537 -8.3841124 2.1022613 0
13.509564 -8.3685398 2.862468 0
4.479918 -2.7304704 -0.71986949 0
5.7196717 -3.4811273 -0.67782664 0
6.6794906 -4.0516233 -0.65003777 0
6.6894951 -4.0367031 -0.64990842 0
7.9042506 -4.7524047 -0.5976609 0
7.909256 -4.7324834 -0.59750211 0
7.9242611 -4.7175632 -0.5973624 0
7.9292679 -4.6926403 -0.59717715 0
11.13851 -6.5849743 -0.34943977 0
14.360748 -8.4830456 1.8033427 0
14.134603 -8.3194447 2.9441149 0
5.0848365 -2.9465272 -0.70023012 0
6.7495313 -3.9073365 -0.64885342 0
10.073934 -5.8238153 -0.55607557 0
14.126296 -8.1658382 1.3901467 0
14.165507 -8.1501884 2.1603546 0
14.125137 -8.092329 2.5407073 0
14.200136 -8.0924368 2.5508509 0
14.250146 -8.0775108 2.5560527 0
14.550076 -8.2078676 2.6007082 0
14.220603 -7.9753652 2.1567104 0
11.293617 -6.2658734 -0.34686986 0
8.0643435 -4.4337387 -0.59508061 0
5.8647394 -3.1978273 -0.67053032 0
5.1948729 -2.8125467 -0.70408547 0
4.6399732 -2.4923782 -0.72288477 0
13.938083 -7.4932318 -0.1155456 0
11.373675 -6.0714197 -0.34038731 0
8.1343813 -4.3042865 -0.594069 0
5.2048879 -2.723048 -0.69846666 0
11.418711 -5.9617171 -0.33956447 0
6.9046168 -3.5690212 -0.64123368 0
4.6799932 -2.3930984 -0.72214997 0
8.194417 -4.1748333 -0.59309244 0
5.2549052 -2.6436076 -0.69785762 0
10.34912 -5.1908493 -0.5462364 0
5.979795 -2.9691763 -0.66880214 0
11.533795 -5.6924591 -0.33758625 0
6.9796572 -3.4098096 -0.64006543 0
4.7500124 -2.2939038 -0.72139609 0
8.2894688 -3.9856145 -0.5917114 0
5.3149309 -2.5244052 -0.69699681 0
10.449189 -4.9466176 -0.54449987 0
7.029686 -3.2953587 -0.63926196 0
4.7950301 -2.2244401 -0.7258898 0
8.3395061 -3.8461561 -0.59075701 0
5.3499479 -2.4399621 -0.6964159 0
11.623914 -5.2885022 -0.32987466 0
8.3745251 -3.7714682 -0.59024239 0
6.0998511 -2.720603 -0.66706216 0
5.3749566 -2.3753839 -0.69098997 0
4.8500466 -2.130163 -0.72523725 0
4.8450499 -2.1152403 -0.7251544 0
11.678972 -5.0890112 -0.32857981 0
8.4095573 -3.6270299 -0.58431935 0
7.1197405 -3.0465565 -0.63261378 0
5.4299755 -2.3009193 -0.69546902 0
4.85006 -2.0357394 -0.7196821 0
14.198564 -5.9661713 -0.095375121 0
10.629329 -4.4232435 -0.53605175 0
7.1697669 -2.9520049 -0.63699496 0
5.4449911 -2.2213912 -0.69498777 0
4.9100728 -1.9812008 -0.72429407 0
4.9200735 -1.9762818 -0.72425044 0
12.272683 -4.9423466 1.1931068 0
4.9500799 -1.961422 -0.72913086 0
5.4800019 -2.1617897 -0.69460845 0
4.935081 -1.9316013 -0.72398043 0
12.252742 -4.8025236 1.1888732 0
12.267754 -4.7725778 1.1890563 0
5.4950123 -2.1071067 -0.69428933 0
7.2248039 -2.7678854 -0.63088393 0
7.2398071 -2.7529652 -0.63078558 0
6.2699308 -2.3626339 -0.66978192 0
4.9700937 -1.8521594 -0.72350705 0
10.729435 -3.9895477 -0.52847612 0
6.2899384 -2.3029706 -0.66443861 0
11.864183 -4.3259931 -0.31899258 0
7.289835 -2.6235895 -0.63002861 0
5.5600348 -1.9779805 -0.69352031 0
10.819481 -3.825063 -0.53249669 0
6.3249574 -2.2035213 -0.66387606 0
4.99511 -1.7230531 -0.71780026 0
8.6397181 -2.9596493 -0.58032942 0
5.5800514 -1.8835305 -0.69301462 0
10.864519 -3.6506119 -0.52654302 0
6.3699789 -2.1090512 -0.66834688 0
11.959289 -3.932004 -0.31684259 0
8.6797447 -2.8202088 -0.57458282 0
5.6200652 -1.7990863 -0.69255447 0
42.986668 -13.786633 0.25507537 0
15.068929 -4.7790146 -0.092951804 0
14.468969 -4.549016 -0.077409744 0
14.178995 -4.4240408 -0.072079152 0
14.169006 -4.3791051 -0.071874082 0
41.581909 -12.811583 0.25849614 0
42.791035 -13.096362 1.298293 0
42.360291 -12.870697 2.3239884 0
5.0801449 -1.5095422 -0.72167778 0
5.6450872 -1.6648704 -0.69189382 0
6.4400187 -1.8902252 -0.66722727 0
6.4500198 -1.8803045 -0.66717148 0
6.4550223 -1.8653828 -0.66709876 0
6.450026 -1.845459 -0.66701305 0
5.6650958 -1.6052639 -0.69160271 0
5.0951562 -1.4250948 -0.72128117 0
5.1001577 -1.4151745 -0.72123265 0
5.085156 -1.40027 -0.71617877 0
43.227177 -11.932597 0.26412615 0
15.074108 -4.1052113 -0.089786202 0
12.074454 -3.2537417 -0.30852959 0
10.969682 -2.9227188 -0.51799321 0
8.819849 -2.3221171 -0.57213724 0
6.4850497 -1.6813374 -0.66126001 0
5.1401696 -1.3158901 -0.72077107 0
12.084492 -3.079186 -0.30276302 0
8.8398685 -2.2224965 -0.57169485 0
6.5050607 -1.6117271 -0.6609509 0
14.369231 -3.5308762 -0.067872971 0
11.019735 -2.6734653 -0.51689041 0
6.51507 -1.5520393 -0.66069901 0
5.1701822 -1.2116038 -0.72032213 0
14.574268 -3.40623 -0.072204024 0
12.159555 -2.8049052 -0.30156985 0
11.044767 -2.5189109 -0.51624513 0
7.5500126 -1.6928475 -0.62550628 0
6.5350862 -1.4475826 -0.66027176 0
5.7551451 -1.2573861 -0.69008589 0
5.1851931 -1.1172336 -0.71994638 0
45.88773 -9.9093924 0.27473685 0
45.877762 -9.7894392 0.27519503 0
45.916271 -9.7128 2.4655356 0
46.265522 -9.6971035 3.5808487 0
5.2051997 -1.0576313 -0.71971214 0
5.2102008 -1.0477107 -0.71967316 0
5.7501554 -1.1480277 -0.68468356 0
6.5951099 -1.3033482 -0.664693 0
7.6300483 -1.4937608 -0.62970495 0
7.6300507 -1.478837 -0.6296519 0
6.5951161 -1.2585794 -0.66453373 0
5.8101659 -1.0884097 -0.68943369 0
5.815167 -1.07849 -0.68939686 0
5.8201723 -1.0635505 -0.69434202 0
5.8201709 -1.0486466 -0.68929088 0
5.8201718 -1.0387241 -0.68925822 0
5.2402167 -0.918562 -0.72420692 0
45.937466 -8.0741405 1.3665273 0
46.102489 -8.0042067 1.3668698 0
46.23251 -7.9092846 1.3722764 0
46.407528 -7.8393707 1.3776197 0
45.858276 -7.6204166 0.28301796 0
14.849504 -2.4182711 -0.06839928 0
12.349738 -1.9770321 -0.30344424 0
11.199912 -1.7611456 -0.51342404 0
7.7700987 -1.1951274 -0.63861585 0
5.8401895 -0.87966186 -0.68873549 0
15.054546 -2.2436903 -0.072721809 0
11.199932 -1.6315291 -0.5080179 0
7.7851114 -1.1055115 -0.63833213 0
5.8801994 -0.81504083 -0.69351876 0
14.834587 -2.038996 -0.067220002 0
11.209955 -1.5018969 -0.50762236 0
7.810123 -1.0208991 -0.63807142 0
5.9102082 -0.75042003 -0.69831765 0
15.10462 -1.8993609 -0.07166335 0
11.214976 -1.3772652 -0.50726378 0
7.8351369 -0.93626833 -0.64282215 0
5.9202147 -0.68581039 -0.6981374 0
14.794658 -1.6896662 -0.061241448 0
11.219998 -1.2476315 -0.50690484 0
7.8551483 -0.84665304 -0.64257109 0
6.7351875 -0.70644462 -0.66777623 0
5.9252219 -0.60627967 -0.69793022 0
5.9352231 -0.59135926 -0.69788635 0
5.9102216 -0.57644844 -0.69286275 0
5.9452252 -0.56651658 -0.69782138 0
5.9552293 -0.55158037 -0.70277858 0
5.9502277 -0.53667307 -0.69774485 0
5.9552283 -0.5267517 -0.69772148 0
5.9552298 -0.51182944 -0.69768548 0
5.3552599 -0.44669133 -0.73282623 0
5.3552608 -0.43176979 -0.73279023 0
5.9752359 -0.47205088 -0.70258451 0
5.3652616 -0.41192845 -0.73274457 0
5.3702626 -0.3970094 -0.73270714 0
42.783691 -3.1648426 1.2890313 0
14.804786 -1.0459229 -0.059640408 0
14.684792 -1.0059825 -0.054610759 0
42.464291 -2.8419213 0.29461178 0
42.809307 -2.7670317 0.29494312 0
43.903774 -2.7452962 1.3155116 0
42.6633 -2.5829954 2.2902677 0
5.3852682 -0.30263916 -0.73250735 0
5.3902717 -0.28770378 -0.73747289 0
5.3902693 -0.27779686 -0.73245621 0
5.3952732 -0.26286164 -0.73742259 0
5.3902707 -0.25295538 -0.73240936 0
5.3902717 -0.23803359 -0.73237884 0
5.9952517 -0.25829974 -0.7021414 0
5.4002752 -0.21817429 -0.73734021 0
5.3952742 -0.20326442 -0.7323122 0
5.395278 -0.18832691 -0.73728192 0
5.3902755 -0.17841688 -0.73226869 0
43.254066 -1.425506 1.302933 0
14.579898 -0.43204442 -0.05349046 0
11.265141 -0.30031332 -0.50477993 0
7.9902282 -0.18944608 -0.65109432 0
6.0102658 -0.11904804 -0.70687997 0
44.959164 -0.86601764 1.34477 0
43.144211 -0.73062372 1.2991741 0
43.389225 -0.63569766 1.3044537 0
44.949226 -0.55607414 1.3453113 0
14.609949 -0.13259716 -0.052951515 0
14.564955 -0.097650826 -0.052914232 0
14.519958 -0.062717758 -0.04787764 0
12.860087 -0.021823481 -0.31357643 0
11.26018 0.0088560218 -0.50426733 0
9.3252201 0.034293827 -0.58511877 0
6.8402619 0.044835463 -0.67625237 0
6.0252757 0.054962534 -0.70661581 0
14.564996 0.16686171 -0.052518308 0
11.275197 0.16343722 -0.50403988 0
8.0502605 0.13922966 -0.65556872 0
6.0552812 0.12458991 -0.71151304 0
14.695022 0.33653742 -0.05223152 0
11.27521 0.28808996 -0.50388515 0
11.280213 0.31302008 -0.50385392 0
11.290216 0.34294945 -0.50380886 0
11.280219 0.36788028 -0.50378621 0
11.280221 0.39281115 -0.50375903 0
11.280224 0.41774198 -0.50373268 0
14.630054 0.56612086 -0.051995456 0
13.764775 0.55961335 0.60758424 0
13.769511 0.58303457 1.252602 0
13.769519 0.61799026 1.2526424 0
13.784525 0.64794379 1.2526765 0
14.360071 0.72084337 -0.046963811 0
11.31524 0.60225344 -0.50352824 0
7.9902773 0.44797242 -0.65027058 0
6.015286 0.35829309 -0.70630026 0
71.014748 4.2984376 1.9685248 0
14.755102 0.94044685 -0.056583881 0
13.080196 0.86620075 -0.32246026 0
9.3902731 0.65222234 -0.59442794 0
6.9002867 0.49767628 -0.68577337 0
6.045289 0.45276785 -0.71122825 0
5.3952923 0.41783088 -0.73657739 0
47.204903 3.7227468 1.4064364 0
14.745131 1.209963 -0.056399673 0
11.285266 0.95628864 -0.50329483 0
9.4102812 0.82164419 -0.59432304 0
7.9702878 0.72186828 -0.65010297 0
6.8852897 0.64200312 -0.68570077 0
5.3952909 0.51721621 -0.73653364 0
14.665152 1.4345369 -0.051334172 0
14.695157 1.4744829 -0.056296885 0
14.69516 1.5094222 -0.056281656 0
13.200242 1.3900938 -0.33210978 0
11.300283 1.2206042 -0.50817108 0
9.4352922 1.0409341 -0.59922683 0
7.990293 0.90614033 -0.65503442 0
6.875289 0.79625404 -0.68566918 0
6.0252867 0.71632618 -0.71114588 0
5.4002886 0.65638018 -0.74150097 0
14.580182 1.7988783 -0.051273406 0
13.280262 1.6745042 -0.33700421 0
11.24029 1.4449775 -0.50316942 0
9.4052954 1.2352898 -0.59921432 0
6.8602891 0.92066592 -0.69067276 0
5.3952837 0.74084401 -0.74151111 0
13.325272 1.8641071 -0.33697447 0
9.3752966 1.3399329 -0.59923697 0
6.8402853 0.99528313 -0.68569732 0
5.3652782 0.80045301 -0.73653793 0
13.37028 2.0237832 -0.34196964 0
11.225299 1.7292261 -0.50820005 0
7.9902935 1.2547475 -0.6600554 0
5.9852772 0.95996356 -0.71120369 0
5.345273 0.86999482 -0.73657739 0
46.865318 7.7071557 1.4120795 0
46.645321 7.7771692 1.4069202 0
45.98032 7.7672415 1.3914946 0
45.945332 7.8672352 1.386438 0
45.850338 7.967227 1.386362 0
46.065346 8.1121798 1.3914438 0
46.145355 8.2321463 1.3964432 0
46.055363 8.3171453 1.3913362 0
45.875366 8.3921452 1.391187 0
14.460231 2.6922488 -0.051526934 0
13.420295 2.5327389 -0.34712717 0
13.420295 2.5626733 -0.34714785 0
13.415296 2.5976083 -0.34716305 0
11.245301 2.2029848 -0.51339984 0
11.240301 2.2329144 -0.51341498 0
11.245301 2.2578449 -0.51343441 0
11.250302 2.2877824 -0.51844716 0
11.2353 2.3077073 -0.51348031 0
11.2353 2.3376379 -0.5134958 0
11.2353 2.362576 -0.51851916 0
11.2303 2.387507 -0.51854444 0
11.230299 2.4174378 -0.51856208 0
11.220299 2.4373691 -0.51859689 0
11.215298 2.4623001 -0.51862407 0
9.3152838 2.0725 -0.60467076 0
9.3102837 2.0924284 -0.60469604 0
9.2952824 2.1123562 -0.60472536 0
9.3102818 2.1372831 -0.6047405 0
9.2952795 2.1572125 -0.60476983 0
9.3052797 2.1821396 -0.60478735 0
6.7652516 1.60737 -0.69115078 0
6.7752523 1.6273005 -0.69616234 0
5.9552412 1.4423183 -0.72161543 0
5.2902327 1.2973162 -0.74197638 0
49.530537 12.251279 1.490779 0
49.220539 12.296293 1.4854909 0
48.650536 12.261337 1.4700532 0
49.325546 12.561258 1.485266 0
49.15554 12.636255 1.4850383 0
48.800541 12.661277 1.4747144 0
14.300241 3.7553177 -0.057624817 0
13.23028 3.5056601 -0.35320261 0
11.170278 2.9909191 -0.52425778 0
9.2902603 2.5160713 -0.61521113 0
9.2902584 2.5359993 -0.6152463 0
7.8552418 2.1660724 -0.66597176 0
5.9352179 1.6561828 -0.72691977 0
14.035231 3.9598413 -0.053137898 0
11.155266 3.1804326 -0.52453983 0
7.8352332 2.2557077 -0.67113066 0
5.900208 1.7158027 -0.72705674 0
13.915223 4.0945368 -0.048462719 0
11.150257 3.3150907 -0.5297606 0
7.825223 2.3503389 -0.67129326 0
5.8951983 1.7854226 -0.72718561 0
53.370598 16.330645 1.5984268 0
54.400822 16.791735 0.30365965 0
13.835214 4.3141131 -0.048898637 0
13.850213 4.3490496 -0.048958808 0
13.840211 4.3839893 -0.04902184 0
13.835209 4.413928 -0.049089193 0
12.20522 3.9241652 -0.31482199 0
13.825206 4.4838066 -0.049218088 0
52.480751 17.126646 0.30122086 0
53.630215 17.608471 4.2464128 0
52.979855 17.506544 6.8158903 0
5.2201662 1.7395574 -0.75278747 0
5.8551707 1.9644367 -0.7325691 0
5.2101617 1.7644038 -0.75284493 0
53.05022 18.083641 4.219902 0
51.870533 17.835583 1.5742105 0
52.630222 18.208725 4.1942081 0
52.265221 18.218781 4.1688099 0
52.12022 18.298813 4.1634874 0
13.605179 4.8230801 -0.050138414 0
13.605177 4.8580184 -0.05021289 0
51.540504 18.520535 1.5674777 0
15.049952 5.4364867 2.1551056 0
5.8051438 2.1135983 -0.73294258 0
6.5451474 2.3934748 -0.69773901 0
6.5351443 2.4083998 -0.69778025 0
7.7151551 2.8632724 -0.67744732 0
7.7001514 2.8781991 -0.67749822 0
7.6951489 2.8931236 -0.6775496 0
7.6951461 2.9130495 -0.67759705 0
7.6901431 2.9329755 -0.67764544 0
7.6851397 2.9479015 -0.67769694 0
9.2001505 3.5527627 -0.63732183 0
11.540144 4.4824562 -0.29174158 0
11.550141 4.512392 -0.29681435 0
13.165135 5.1821671 -0.04646486 0
14.685006 5.8012624 1.7588298 0
14.729978 5.8560619 2.133745 0
14.464952 5.7858939 2.4735835 0
5.1250987 2.0624802 -0.7586689 0
5.7050996 2.312377 -0.72856724 0
6.4651022 2.6372712 -0.6984328 0
9.16012 3.7571142 -0.64287817 0
11.335113 4.671864 -0.28747424 0
14.955034 6.1911201 1.4132001 0
14.109986 5.8708725 2.0679224 0
15.014944 6.28053 2.9579973 0
5.7100825 2.4019208 -0.73381352 0
6.4300828 2.7218199 -0.69871986 0
10.4301 4.4366169 -0.51304209 0
53.52037 22.88558 0.28939828 0
14.229992 6.1106973 2.0924354 0
5.6600699 2.4416161 -0.73399365 0
9.1050854 3.9514623 -0.64348471 0
13.190082 5.7511821 -0.052930534 0
14.124995 6.1856012 2.0821009 0
5.6550608 2.4913852 -0.73412585 0
7.5350661 3.3312726 -0.68391228 0
13.10007 5.8159966 -0.053246737 0
14.18501 6.3305702 1.7317839 0
5.0500493 2.2661691 -0.76433587 0
10.100062 4.5459867 -0.49379566 0
53.310108 24.079645 4.3757706 0
14.839964 6.7302108 3.3516366 0
11.290053 5.1458054 -0.29883763 0
14.234999 6.5003648 2.1063387 0
5.6100383 2.575851 -0.73445201 0
12.880045 5.9306269 -0.048888534 0
13.874999 6.4153066 2.0660803 0
5.5750308 2.5906975 -0.72954941 0
11.290036 5.2655396 -0.29920819 0
13.915 6.5102386 2.0758531 0
14.494975 6.8100853 3.6858907 0
19.580038 9.23032 0.28102744 0
5.0200205 2.3754723 -0.76472342 0
