# .PCD v0.7 - Point Cloud Data file format
VERSION 0.7
FIELDS x y z intensity
SIZE 4 4 4 4
TYPE F F F F
COUNT 1 1 1 1
WIDTH 1420
HEIGHT 1
VIEWPOINT 0 0 0 1 0 0 0
POINTS 1420
DATA ascii
13.221119 -9.6711321 0.49261153 0
13.238913 -9.5875988 2.4158459 0
12.638323 -9.0957823 2.6894779 0
3.7303243 -2.6231561 -0.54216146 0
4.6312556 -3.2673321 -0.4627628 0
6.1741891 -4.3748975 -0.34298804 0
7.3489661 -5.200458 -0.24465171 0
10.549936 -7.4773927 0.1361777 0
12.120656 -8.5157604 2.2095888 0
3.7656662 -2.5838077 -0.54856801 0
4.154027 -2.8504441 -0.50770319 0
6.2247744 -4.3055072 -0.34540352 0
10.590885 -7.3577495 0.1372989 0
12.202883 -8.4017782 2.5607853 0
12.718937 -8.7071438 3.3975589 0
5.3989325 -3.6619098 -0.42020592 0
9.0430717 -6.1787066 -0.10468781 0
12.456363 -8.462718 2.2360113 0
12.84936 -8.6678848 3.4106114 0
5.4242315 -3.6272418 -0.42141077 0
10.642276 -7.1784248 0.1315446 0
12.388935 -8.2831144 2.5710998 0
12.861725 -8.5331631 3.7716289 0
9.1089468 -6.0694141 -0.10837951 0
12.409481 -8.2085657 2.563735 0
12.90219 -8.4736376 3.7695959 0
9.144269 -6.0297556 -0.10977417 0
12.599302 -8.2592936 2.5891819 0
4.2500796 -2.7317994 -0.51184106 0
6.3613071 -4.1221209 -0.35173908 0
10.693891 -6.9691505 0.12490386 0
3.8767982 -2.4604254 -0.55294693 0
4.8080635 -3.0597978 -0.47508183 0
9.200139 -5.9203911 -0.11340478 0
3.8870018 -2.4356053 -0.55373466 0
5.5452442 -3.5087788 -0.43067399 0
42.194275 -27.275425 2.03057 0
13.268319 -8.3753519 3.8195648 0
9.2605858 -5.8659511 -0.1153754 0
3.8972569 -2.4058385 -0.55468905 0
13.107419 -8.169837 4.5295959 0
13.1471 -8.257225 1.9107226 0
4.8536487 -2.9904292 -0.47740713 0
10.765713 -6.7349257 0.12245065 0
12.919213 -7.9916687 3.3297596 0
13.433846 -8.2391329 5.0100751 0
12.48324 -7.6960888 2.517833 0
5.6010227 -3.4145272 -0.43379989 0
13.232993 -8.1430931 1.9068166 0
4.8889928 -2.9508796 -0.47878584 0
10.806593 -6.6204128 0.11879589 0
4.3561559 -2.6084039 -0.5211395 0
7.7431469 -4.6898727 -0.26732382 0
3.967747 -2.3518767 -0.56169438 0
6.513072 -3.9089305 -0.35898444 0
12.953015 -7.7879491 2.578017 0
13.485415 -8.0207357 4.983222 0
13.307087 -7.9638457 2.6363604 0
6.5382819 -3.8842041 -0.35986266 0
13.483901 -8.0447817 1.9175011 0
13.32341 -7.858026 4.1338696 0
13.532604 -8.0401535 1.5519383 0
13.556532 -7.963542 3.8106122 0
10.863155 -6.4161639 0.11238317 0
4.0032201 -2.2974384 -0.56350255 0
6.5737662 -3.8246505 -0.36182973 0
13.426743 -7.8350201 2.2667098 0
4.4169197 -2.5192952 -0.5241127 0
6.5989556 -3.8000584 -0.36770049 0
12.784504 -7.3735766 2.1613996 0
4.4270887 -2.4994702 -0.52475774 0
6.6192303 -3.7652996 -0.36882553 0
12.804993 -7.3088694 2.1593623 0
4.4372582 -2.479645 -0.52540159 0
6.6444054 -3.7455685 -0.36955884 0
12.755711 -7.2039795 2.1465025 0
14.10756 -7.9054713 3.9009573 0
9.6540871 -5.4298759 -0.13555151 0
12.917109 -7.210134 2.5159879 0
13.534799 -7.4910173 3.7416668 0
9.6943684 -5.3952422 -0.13679141 0
12.399278 -6.8393703 2.4177217 0
14.388 -7.8863521 3.9489415 0
7.9757099 -4.3723969 -0.27801517 0
12.881973 -7.0402794 2.1409988 0
13.659118 -7.4071302 3.3733716 0
5.0710359 -2.7084527 -0.4919512 0
5.8135819 -3.1072595 -0.44406709 0
8.0312109 -4.3081031 -0.28520176 0
11.116657 -5.9637771 0.097632721 0
13.398166 -7.1225348 2.5659032 0
14.342155 -7.5842981 3.1098051 0
4.1147952 -2.1142557 -0.56948066 0
4.5335197 -2.3310876 -0.53026998 0
6.7912068 -3.5223222 -0.37689158 0
9.8912315 -5.1572757 -0.14983046 0
13.72574 -7.1189728 1.8637984 0
13.21669 -6.7884955 2.8671546 0
13.836706 -7.0643253 3.3623555 0
5.8996339 -2.9783521 -0.44827721 0
8.1575871 -4.1344452 -0.29093137 0
14.110753 -7.1558251 1.8979286 0
13.372382 -6.7094569 2.8790689 0
13.902672 -6.9351311 3.3582497 0
5.1823812 -2.545114 -0.50230134 0
5.9451046 -2.919045 -0.45524111 0
5.9502559 -2.8991337 -0.45583406 0
6.9074645 -3.3637881 -0.38710287 0
6.9125834 -3.3488727 -0.38756612 0
8.248683 -3.9954467 -0.29544219 0
8.2588034 -3.980562 -0.29593202 0
8.2689877 -3.9556816 -0.29668936 0
10.158578 -4.8549037 -0.16497543 0
10.158766 -4.8299532 -0.16570652 0
11.420905 -5.4068947 0.079837516 0
13.939357 -6.5853724 0.39658141 0
14.178867 -6.6028776 2.9819741 0
14.089362 -6.5227852 2.9650917 0
10.229603 -4.7206607 -0.16921175 0
7.0238833 -3.1851642 -0.39283916 0
5.3038487 -2.36675 -0.50804901 0
4.2917547 -1.8821208 -0.58708417 0
10.315405 -4.6164622 -0.17262214 0
7.0694709 -3.1107149 -0.39519975 0
5.3393097 -2.3073759 -0.51491666 0
4.3071966 -1.827487 -0.58871353 0
10.386236 -4.5071645 -0.17609495 0
7.1100702 -3.0313656 -0.40266213 0
5.379756 -2.2528994 -0.51666391 0
4.3425202 -1.7881125 -0.59501016 0
11.525013 -4.8533969 0.068449274 0
10.492167 -4.3832726 -0.18513346 0
10.497352 -4.3583536 -0.1858685 0
8.582345 -3.5192304 -0.32071963 0
7.1860037 -2.9122622 -0.4064112 0
6.2085719 -2.4826007 -0.47402415 0
5.4405942 -2.1487601 -0.51990199 0
4.8521433 -1.8909463 -0.55946016 0
4.8572249 -1.881031 -0.5597645 0
4.4083805 -1.6841186 -0.59824944 0
43.504894 -17.373354 1.6538631 0
12.175969 -4.7435784 0.047286853 0
8.7086811 -3.3455355 -0.32622227 0
7.2672286 -2.7532899 -0.41127047 0
6.2796249 -2.3485692 -0.47813055 0
6.2847714 -2.328655 -0.47870234 0
5.5166035 -2.0199511 -0.52887166 0
4.9379969 -1.7823365 -0.57290113 0
4.4591351 -1.5900995 -0.60611773 0
12.153105 -4.4487343 0.044115186 0
8.8049383 -3.1767242 -0.33639285 0
6.355423 -2.2445946 -0.4863781 0
4.9535656 -1.7126172 -0.56991279 0
12.293904 -4.3400078 0.035449892 0
8.8656464 -3.0823562 -0.33928815 0
6.3909602 -2.1750751 -0.48846343 0
4.9839811 -1.6582016 -0.57654905 0
12.290013 -4.185216 0.031187713 0
8.9213543 -2.987952 -0.34212831 0
6.4015622 -2.0953951 -0.4906936 0
5.0143838 -1.6086537 -0.57804179 0
12.126072 -3.9482205 1.2258487 0
12.246064 -3.9587908 1.2356203 0
12.231309 -3.9237597 1.2347251 0
12.216567 -3.8838596 1.2287029 0
12.21678 -3.853924 1.2278841 0
12.211992 -3.8239558 1.2270845 0
5.0500088 -1.5292417 -0.58035243 0
7.5155611 -2.3115289 -0.43457207 0
11.114147 -3.4394875 -0.22421029 0
12.592278 -3.8777494 0.021474749 0
42.708473 -13.341927 0.45516407 0
12.257988 -3.6845655 1.2230988 0
12.263167 -3.6596601 1.2223964 0
42.690617 -13.026799 0.44666553 0
12.658257 -3.7385285 0.012420833 0
11.230289 -3.2806716 -0.23400924 0
11.265406 -3.2659388 -0.2345579 0
9.1291561 -2.6054807 -0.36342528 0
9.1493006 -2.5856564 -0.36403969 0
9.1594467 -2.5657675 -0.36461672 0
9.1795921 -2.545943 -0.36522999 0
11.376184 -3.1569941 -0.24295452 0
41.953377 -11.867073 0.41844487 0
42.476025 -11.862489 2.4768884 0
4.6621528 -1.2088045 -0.6323669 0
5.8055034 -1.514321 -0.55890644 0
7.6727347 -2.0185318 -0.44812444 0
9.2554121 -2.4318316 -0.37360266 0
11.457221 -3.0127728 -0.24715433 0
12.551512 -3.2782261 0.010498881 0
12.48185 -3.2278299 0.0094435215 0
12.48706 -3.1979086 0.0086259842 0
12.567141 -3.1884615 0.0080455542 0
12.482511 -3.1329713 0.0069205761 0
12.612476 -3.1389668 0.0015429258 0
12.797397 -3.1551836 0.0012166798 0
12.75767 -3.1149762 0.00031223893 0
12.543251 -3.0285368 0.0039009452 0
9.3819475 -2.2182658 -0.38479617 0
6.775598 -1.5553924 -0.53176749 0
5.2427821 -1.1675299 -0.60581064 0
12.559294 -2.8788633 -0.00011312962 0
9.4626331 -2.1240029 -0.3876051 0
6.8161182 -1.4858892 -0.53375852 0
5.2682357 -1.1079427 -0.60747159 0
12.45548 -2.7083049 0.00082290173 0
9.5083284 -2.0246441 -0.39539799 0
7.8605089 -1.6360708 -0.46898815 0
6.8567595 -1.3965626 -0.54125607 0
5.2937455 -1.0385317 -0.6143831 0
4.7943616 -0.92131966 -0.65046108 0
45.000397 -9.3661003 0.33977407 0
12.417166 -2.4634221 -0.0054143071 0
11.757194 -2.3060012 -0.27197817 0
11.7674 -2.276109 -0.272791 0
9.6297617 -1.8209838 -0.40617785 0
7.9217968 -1.4569287 -0.47387794 0
7.941906 -1.4421021 -0.47433963 0
9.6652184 -1.7563418 -0.40798566 0
11.823298 -2.146672 -0.27635786 0
12.85823 -2.3118012 -0.021082103 0
45.317078 -8.3529596 0.3122395 0
45.022106 -8.174346 1.3741469 0
46.288898 -8.2338305 4.6968203 0
5.3450913 -0.85960305 -0.61919391 0
6.0544963 -0.9734754 -0.59403348 0
6.9886851 -1.1285032 -0.55869472 0
8.017993 -1.2881242 -0.48359212 0
8.0281019 -1.2732334 -0.48401281 0
7.0040412 -1.0787432 -0.56002271 0
7.0091496 -1.0638224 -0.56042266 0
5.4156194 -0.78564274 -0.63135469 0
5.410727 -0.77066195 -0.63171518 0
5.4108033 -0.76071095 -0.6319685 0
4.9162569 -0.66854113 -0.66740763 0
46.520607 -7.0552754 0.27429613 0
13.096249 -1.8691071 -0.038324773 0
12.011505 -1.6787255 -0.29404691 0
8.1394386 -1.0796887 -0.49935558 0
6.120955 -0.77461892 -0.59933317 0
4.9268498 -0.58895689 -0.66945112 0
12.072401 -1.5444366 -0.30266997 0
8.2000189 -0.9954198 -0.50670993 0
6.1514392 -0.70517635 -0.60619247 0
4.9472394 -0.53445619 -0.67589307 0
12.118313 -1.4099268 -0.30622098 0
8.2556276 -0.90611798 -0.51415753 0
6.1719408 -0.63554502 -0.60800707 0
4.987596 -0.4850778 -0.68227625 0
12.174191 -1.2804768 -0.30966589 0
8.3062534 -0.81665987 -0.51657605 0
6.2023911 -0.57109791 -0.61472321 0
5.5178132 -0.48275653 -0.64932883 0
14.695676 -1.3922912 0.25372282 0
12.220276 -1.1161284 -0.31891945 0
8.3669643 -0.71242887 -0.52438593 0
7.2025299 -0.58185023 -0.5882268 0
5.5283542 -0.4081139 -0.65120506 0
43.776405 -3.7927411 0.20303889 0
13.426743 -1.0474628 -0.065087646 0
13.531878 -1.0281544 -0.065958232 0
10.247196 -0.73278838 -0.46595362 0
8.4429731 -0.56338054 -0.53333187 0
8.4580889 -0.54364145 -0.53887224 0
8.4631948 -0.52871627 -0.53925526 0
7.2936053 -0.42311984 -0.60245574 0
7.3137097 -0.40828976 -0.60289168 0
7.3138452 -0.38833728 -0.6033771 0
6.3042293 -0.30787888 -0.63155246 0
7.334054 -0.3585529 -0.60417461 0
6.3194189 -0.27818978 -0.63732934 0
5.6096735 -0.21959038 -0.66609716 0
13.684448 -0.63474816 -0.081118405 0
13.709674 -0.59994531 -0.082054853 0
12.424262 -0.51338512 -0.33940914 0
8.589716 -0.30027178 -0.555264 0
7.3899417 -0.22450651 -0.61761844 0
7.4100451 -0.20967531 -0.61804891 0
7.4101491 -0.19472069 -0.61840701 0
6.3853788 -0.13918862 -0.64591599 0
6.3904824 -0.12426709 -0.64629149 0
6.4055667 -0.10952806 -0.65170097 0
5.6457181 -0.070510939 -0.67480123 0
5.1157455 -0.043270234 -0.71348226 0
13.727106 -0.2255341 -0.0911026 0
42.094749 -0.86195815 0.13822736 0
42.090401 -0.75692052 0.13573621 0
45.915649 -0.7253722 0.12069815 0
13.867878 -0.10655589 -0.094455153 0
12.552204 -0.05991625 -0.35572717 0
12.567398 -0.030048329 -0.3564913 0
10.557093 0.013497473 -0.50506198 0
8.7470331 0.052616026 -0.57925415 0
6.4768381 0.079185985 -0.66643286 0
5.7218475 0.098038234 -0.69406748 0
5.1718035 0.11051541 -0.7273165 0
42.755569 0.31303051 1.1032056 0
13.834895 0.20825057 -0.10175464 0
12.644051 0.22901671 -0.36787406 0
10.643504 0.23248519 -0.51552856 0
8.8482027 0.23149122 -0.5888226 0
7.5779738 0.23264578 -0.64912355 0
6.5328398 0.22826134 -0.67512262 0
5.7777104 0.22698471 -0.70727944 0
13.751489 0.45844319 -0.10728014 0
10.699585 0.40174365 -0.52467513 0
7.6136541 0.33704236 -0.65667665 0
5.8031688 0.29647309 -0.71398163 0
14.052533 0.62629533 -0.11729407 0
10.765368 0.52602571 -0.53279305 0
7.6542301 0.42645574 -0.66388893 0
5.8236146 0.36111441 -0.71553898 0
14.003542 0.7863993 -0.12079707 0
10.801149 0.65049165 -0.54078591 0
7.6947737 0.51087201 -0.67096972 0
5.8390708 0.43066633 -0.72218621 0
14.23461 0.95968604 -0.13062981 0
10.846975 0.78001666 -0.54391694 0
7.7303748 0.60531825 -0.67825723 0
5.8795242 0.50006926 -0.72891307 0
14.17058 1.1148844 -0.13391587 0
10.89775 0.90439671 -0.55192828 0
7.7759438 0.69470757 -0.68544924 0
5.8649659 0.5649237 -0.73031747 0
14.331671 1.2936015 -0.14356765 0
10.94855 1.033777 -0.56003892 0
10.953709 1.0587074 -0.56061792 0
12.925524 1.2606394 -0.40757534 0
12.94071 1.2905114 -0.40830186 0
14.487726 1.4673563 -0.15305912 0
13.718742 1.4349229 0.1906718 0
13.711311 1.4800284 0.83485758 0
5.3053136 0.63194114 -0.76970017 0
6.6764483 0.78015357 -0.71319866 0
6.6865282 0.79493117 -0.71856463 0
9.1434956 1.0671947 -0.64395297 0
9.1486521 1.0921217 -0.64452994 0
9.15378 1.1120502 -0.64498937 0
7.9028053 0.99278373 -0.71258867 0
6.7170324 0.87440515 -0.72543919 0
6.7221599 0.89432842 -0.7259028 0
5.9365778 0.81330597 -0.751109 0
5.3161097 0.75128853 -0.77736962 0
46.179497 5.9296246 1.047358 0
46.120079 6.0299921 1.0453689 0
14.50103 2.0066831 -0.16507897 0
13.109129 1.853492 -0.43643579 0
11.172118 1.6161242 -0.59381187 0
7.9090867 1.1922767 -0.71699083 0
6.7831907 1.0582817 -0.7397294 0
5.9574933 0.95748621 -0.76434612 0
5.3519382 0.88037151 -0.79032421 0
14.517665 2.2762885 -0.17103323 0
11.198268 1.8055871 -0.60304821 0
7.9299226 1.3267375 -0.72499692 0
5.9780312 1.0419745 -0.77124918 0
14.643782 2.4652503 -0.18060422 0
11.249073 1.9399962 -0.61113071 0
7.9505029 1.4212997 -0.73209906 0
5.9834886 1.1117221 -0.77275467 0
46.112907 8.0455475 -0.078660995 0
14.670034 2.6749048 -0.18518811 0
13.267746 2.4566798 -0.46006963 0
11.265226 2.1296642 -0.61523938 0
11.27036 2.1544862 -0.62078297 0
11.285541 2.1843622 -0.62147689 0
11.265692 2.2094464 -0.62193239 0
11.305901 2.2441733 -0.6228261 0
11.311081 2.2741084 -0.62348235 0
11.331243 2.3038416 -0.62918913 0
11.331393 2.3288078 -0.62971187 0
9.4790659 1.9875911 -0.71014607 0
8.0072842 1.7150244 -0.75353706 0
6.8759627 1.5060042 -0.77462196 0
6.0299444 1.3454045 -0.79285669 0
5.3691545 1.2237039 -0.81265831 0
46.953487 10.096636 0.9898634 0
45.608402 9.8992758 -0.11585236 0
45.453823 9.9752302 -0.11681429 0
45.419384 10.075475 -0.11876667 0
45.520111 10.20492 -0.12186998 0
45.540756 10.319838 -0.12434918 0
14.724603 3.4537787 -0.20677209 0
14.789872 3.5032496 -0.21306244 0
14.659924 3.5090983 -0.20765308 0
13.492472 3.2642751 -0.49289009 0
11.50429 2.8267744 -0.66077685 0
11.504467 2.8567405 -0.66139901 0
11.529671 2.8915596 -0.66222048 0
11.529819 2.9165273 -0.66272807 0
9.5368443 2.4561844 -0.73509824 0
8.1247435 2.1280971 -0.78256226 0
8.1298466 2.1479161 -0.78798687 0
8.1349678 2.1678476 -0.78841221 0
6.91821 1.8745031 -0.7973783 0
6.0369163 1.6640714 -0.8144331 0
5.3809795 1.5124258 -0.82862949 0
50.322742 13.474655 1.0013627 0
50.042934 13.51622 0.99669099 0
14.66316 4.0734711 -0.22421196 0
13.655713 3.832505 -0.52018404 0
13.660913 3.8674448 -0.52091122 0
11.632243 3.3401403 -0.68678057 0
11.642388 3.3650508 -0.68731141 0
11.637562 3.3950467 -0.68790114 0
9.6341257 2.8497081 -0.75847316 0
8.1516418 2.451988 -0.80422592 0
6.0281096 1.8584498 -0.82331586 0
14.565068 4.4087329 -0.23055908 0
11.688619 3.5843363 -0.70191967 0
8.1722469 2.556566 -0.81139767 0
6.0485816 1.9380049 -0.82998407 0
14.641224 4.6131344 -0.23496369 0
11.729488 3.7388313 -0.71016383 0
8.1778507 2.6612308 -0.81850183 0
6.0490236 2.0126767 -0.83646011 0
14.587151 4.7782946 -0.23800626 0
11.770383 3.8983281 -0.71849847 0
9.7915678 3.2875643 -0.79786909 0
8.1935949 2.790801 -0.82612896 0
6.0545549 2.1022785 -0.84323645 0
5.3783207 1.8957117 -0.85622764 0
53.903938 18.346045 3.6592257 0
5.3534484 1.9157664 -0.85651052 0
5.3685503 1.9355245 -0.86196578 0
5.3686137 1.9454809 -0.86214995 0
5.3737049 1.9604076 -0.86246109 0
5.3637962 1.9754198 -0.86272001 0
5.3338218 1.9756594 -0.85758138 0
6.9572415 2.5619016 -0.8461957 0
6.9623585 2.5818315 -0.8466053 0
5.374115 2.0300753 -0.86881328 0
53.480293 19.563568 3.6372969 0
14.445545 5.3934445 -0.2544122 0
12.8615 4.8464093 -0.51678765 0
14.551179 5.5077744 -0.25709787 0
51.474995 19.313177 -0.32971987 0
52.712914 19.929718 0.96307671 0
53.014301 20.183136 0.96182251 0
51.8479 19.856205 -0.34188148 0
12.752357 5.0018497 -0.51927793 0
11.919848 4.7110438 -0.76496708 0
9.9153271 3.9653389 -0.84157264 0
6.9237347 2.8212678 -0.86102998 0
5.3702617 2.2242649 -0.88250959 0
12.808576 5.2262301 -0.52882528 0
9.9310656 4.0999718 -0.84920323 0
6.9392676 2.915868 -0.86788845 0
6.0923505 2.5900226 -0.88778961 0
5.3657537 2.3089185 -0.88909125 0
15.298074 6.4891863 1.6261343 0
15.258231 6.5193572 1.6257331 0
15.318571 6.5790668 1.6293421 0
15.218546 6.5794744 1.6247959 0
15.173658 6.6045671 1.6195232 0
14.774066 6.4740114 1.9589407 0
5.371314 2.4083652 -0.90097284 0
6.0831642 2.7344804 -0.90046346 0
6.9153571 3.1103454 -0.88143337 0
9.9830465 4.4688091 -0.87640214 0
12.615909 5.6568584 -0.53605211 0
53.643757 23.827328 -0.4256511 0
14.767761 6.7076812 1.2094233 0
15.181827 6.94277 2.0182271 0
6.0786991 2.8291478 -0.90719688 0
6.9360318 3.2347717 -0.89385581 0
10.008991 4.6433563 -0.88477838 0
11.052362 5.1461515 -0.72409344 0
12.496944 5.8474183 -0.53404105 0
14.663753 6.8979678 1.2063957 0
5.3723202 2.5875154 -0.91930902 0
6.9265432 3.324625 -0.89546585 0
11.042994 5.2659655 -0.73127222 0
12.617958 6.0413914 -0.54821372 0
14.825106 7.14217 1.2160836 0
5.3626256 2.6422901 -0.92526758 0
10.055274 4.8875103 -0.9045192 0
12.443073 6.0623927 -0.54274404 0
14.314249 7.0141616 1.1859461 0
5.3478603 2.6822433 -0.92593133 0
8.3460426 4.146112 -0.92752326 0
15.181826 7.5022531 -0.3275862 0
14.592026 7.2760482 1.5848504 0
15.126637 7.5911379 2.4316068 0
6.0351043 3.0785117 -0.92156518 0
10.076375 5.0969501 -0.91846502 0
52.13945 26.080708 0.89011335 0
14.229397 7.273129 2.3068275 0
6.9028411 3.5639203 -0.91472375 0
10.834615 5.5668201 -0.7307651 0
15.564394 7.9945812 -0.35347345 0
14.2789 7.4149261 1.9389292 0
5.3486924 2.831594 -0.9386394 0
8.3523045 4.3853965 -0.94691002 0
12.530698 6.5661659 -0.56737995 0
13.700167 7.2263093 1.1551123 0
14.807889 7.8617315 2.4032526 0
6.9136109 3.7083695 -0.92739332 0
10.800659 5.7666726 -0.73921585 0
13.620553 7.3064923 1.1490536 0
13.579351 7.3345242 2.2339754 0
6.0062599 3.2879186 -0.93519938 0
9.9229507 5.3923888 -0.92304277 0
13.781696 7.5108509 1.1645602 0
14.865844 8.1550417 2.8277555 0
6.9142556 3.8280225 -0.93453968 0
12.336848 6.7870727 -0.56536877 0
14.902294 8.24471 1.6357417 0
5.3296428 3.0058675 -0.95666146 0
8.3538485 4.6796393 -0.96721411 0
12.337403 6.8968682 -0.57234097 0
14.245796 8.0168467 1.5781789 0
14.16837 8.0231371 2.3386166 0
6.9199328 3.9575429 -0.94689286 0
12.29284 6.9820209 -0.57363033 0
14.356803 8.2013712 1.5893289 0
13.302148 7.6625719 2.5795939 0
6.8901525 3.997591 -0.94742954 0
11.033757 6.3741426 -0.78628564 0
13.41302 7.7919617 1.1464375 0
12.785835 7.4833522 2.4954681 0
6.8754354 4.0524502 -0.95332646 0
12.384261 7.2611089 -0.58908033 0
13.345881 7.8821731 1.8653284 0
5.2755361 3.1655481 -0.96419919 0
6.8908238 4.127141 -0.95973563 0
12.304603 7.326561 -0.58481228 0
14.274885 8.5496264 1.9836575 0
5.2607617 3.2055011 -0.96482193 0
6.8861313 4.1869454 -0.96576011 0
13.956428 8.4232082 -0.3278574 0
12.766251 7.786027 2.160147 0
6.8763199 4.2219214 -0.96631515 0
12.3557 7.5459089 -0.59894288 0
12.609868 7.7640896 1.7913107 0
5.9184418 3.6919463 -0.96189761 0
11.041034 6.8233709 -0.80926263 0
12.916426 8.0282974 1.8350481 0
12.915331 8.0807457 2.9192059 0
9.28018 5.8056831 -0.89696515 0
13.426258 8.416605 1.1603807 0
5.2465072 3.3449845 -0.97718108 0
8.3068504 5.2634177 -1.0072607 0
13.316294 8.432003 1.1557089 0
12.729198 8.1234484 2.5345232 0
6.8722868 4.4112797 -0.98458827 0
12.337382 7.880621 -0.60968459 0
14.71985 9.4583454 2.0653603 0
13.092574 8.4805527 2.9762783 0
9.1709146 5.9461451 -0.89382362 0
14.647285 9.4967527 1.2449448 0
5.2320805 3.454556 -0.98900306 0
8.3177919 5.4527998 -1.0255964 0
14.452034 9.4625206 1.236617 0
5.2172194 3.479552 -0.98935294 0
9.1112967 6.0213327 -0.89477825 0
13.329557 8.8293419 1.5338109 0
5.8546972 3.9313643 -0.98068678 0
11.279392 7.5007591 -0.86231971 0
14.057854 9.4019556 1.6048868 0
5.8548856 3.9662807 -0.98127556 0
14.387554 9.6397552 -0.37138465 0
12.736819 8.623435 2.570832 0
11.154544 7.531455 -0.85716033 0
13.598022 9.2312593 1.9504677 0
8.2938194 5.6574435 -1.0389979 0
14.895629 10.135686 1.2725613 0
13.392847 9.1933689 3.4724154 0
14.209208 9.7137794 0.028411388 0
5.1778979 3.6091766 -1.001358 0
12.556108 8.6333294 -0.65389788 0
11.98854 8.317482 2.1052027 0
8.2793169 5.7572803 -1.0456233 0
14.279247 9.9179392 1.2347313 0
5.1280198 3.6245258 -0.99132383 0
6.8242874 4.8052878 -1.0160918 0
10.819887 7.5984449 -0.83641851 0
13.544646 9.5563421 1.9602083 0
5.8258772 4.1606765 -0.9994278 0
11.146322 7.8958826 -0.87834096 0
12.74679 9.0884457 1.867705 0
13.30327 9.535675 3.1019928 0
8.2652035 5.9369087 -1.058579 0
12.147343 8.7407742 1.0969158 0
12.122174 8.7793293 2.5016539 0
13.531361 9.8387098 3.565623 0
12.764136 9.2513466 -0.69062018 0
11.870317 8.6776581 2.1147637 0
12.979267 9.5338163 3.4389517 0
12.784632 9.3511744 -0.69241416 0
11.981233 8.8424168 2.1363342 0
5.8016729 4.3201308 -1.016969 0
11.19317 8.2750435 -0.90003264 0
13.205759 9.817173 1.9427468 0
5.7968831 4.3600736 -1.0176209 0
11.188549 8.3549051 -0.9063679 0
13.854058 10.390529 2.0293202 0
12.979377 9.8011417 3.0793819 0
9.0152035 6.8151584 -0.94274151 0
13.590772 10.290224 1.2073829 0
12.913235 9.8433199 2.6841319 0
12.896016 9.8840933 3.4635329 0
55.979652 42.345982 -0.76537681 0
13.511512 10.39263 2.8064079 0
6.7513995 5.2293987 -1.0478289 0
13.098178 10.083439 -0.74155903 0
12.806133 9.9382486 1.9180475 0
5.0648494 3.9832714 -1.0269651 0
8.217577 6.4259295 -1.0965235 0
13.711623 10.716677 0.82448459 0
12.525538 9.8588762 1.8860472 0
5.0550957 4.0330968 -1.0327377 0
8.2079544 6.5057831 -1.1027787 0
11.115758 8.8196096 -0.92868924 0
13.265687 10.568511 0.80963194 0
13.505979 10.82152 2.0241904 0
5.0153313 4.078146 -1.0332391 0
6.7124343 5.4439335 -1.066135 0
8.1885843 6.6405268 -1.1148751 0
13.462145 10.910492 -0.79249036 0
13.634825 11.11495 1.2334504 0
13.542377 11.10151 2.0443707 0
13.51748 11.126584 2.0441322 0
13.820599 11.434325 2.512274 0
13.432616 11.166816 2.0389714 0
11.11287 9.2739267 -0.95613158 0
8.1747332 6.8850427 -1.1338201 0
4.9310141 4.2130437 -1.0398971 0
13.458977 11.441858 2.0593326 0
13.851338 11.797356 -0.84940994 0
9.2103796 7.9165993 -1.0420882 0
5.6496415 4.9237828 -1.0659901 0
11.330575 9.8518248 -1.0019221 0
6.6242514 5.8282504 -1.0968264 0
14.264863 12.544203 -0.90417314 0
8.146389 7.2443156 -1.1644655 0
4.8819599 4.4075079 -1.0577364 0
9.2723541 8.3453693 -1.0794454 0
5.5954781 5.0984802 -1.0784444 0
11.488314 10.449939 -1.0525944 0
6.5652447 6.0429025 -1.1148973 0
14.533691 13.371885 -0.95425212 0
8.1127501 7.5437832 -1.1890478 0
4.8377156 4.5670328 -1.074995 0
14.690551 13.770683 -0.97670281 0
9.4500303 8.9331169 -1.1400262 0
6.5311108 6.2324972 -1.1327064 0
4.8482165 4.6764774 -1.0917952 0
14.496029 13.896621 -0.97742021 0
11.571547 11.163488 -1.0995688 0
8.0339842 7.8185883 -1.2079211 0
6.511796 6.382185 -1.1449496 0
8.0192471 7.8785043 -1.213787 0
8.0143614 7.9034986 -1.2141305 0
9.4568863 9.3473024 -1.1716486 0
7.9996238 7.9634156 -1.2199919 0
6.4873571 6.5069361 -1.156775 0
4.7790055 4.8460946 -1.1090208 0
14.529318 14.635751 -1.014378 0
9.4931841 9.6414547 -1.2015517 0
6.45789 6.6267142 -1.1684693 0
4.6790709 4.8517003 -1.0934128 0
11.781016 12.160863 -1.1767793 0
6.4383183 6.7215753 -1.1748098 0
15.295528 15.97524 -1.1107231 0
7.9213595 8.3579283 -1.2506628 0
4.6596808 4.9862199 -1.1103883 0
9.6209679 10.269513 -1.2623148 0
5.3436165 5.7823262 -1.1375746 0
11.793523 12.734988 -1.21587 0
6.3693657 6.961185 -1.1980954 0
20.772118 22.653912 -1.6531136 0
7.8828416 8.7022371 -1.2857783 0
4.565268 5.1161003 -1.1217625 0
7.8783607 8.8219738 -1.2976303 0
4.5504904 5.165957 -1.1274201 0
11.730762 13.259604 -1.2486205 0
7.8639855 8.9667311 -1.3097723 0
5.2246666 6.0220041 -1.1604506 0
4.510829 5.2408557 -1.1333007 0
17.262375 19.914101 -0.15567899 0
16.989304 19.689093 -0.75536478 0
9.8564024 11.515849 -1.3833537 0
6.2411366 7.370657 -1.2335407 0
4.4561863 5.3207903 -1.1391369 0
10.172486 12.103724 -0.34950647 0
10.121263 12.09701 -0.71909332 0
11.583442 13.899589 -1.2824854 0
7.8060117 9.4458647 -1.3567593 0
5.1106691 6.2517872 -1.1781658 0
21.66334 26.361416 -1.8768926 0
7.7816219 9.5906773 -1.3688058 0
4.3718266 5.4656124 -1.15074 0
9.47752 11.812426 -1.385182 0
5.041193 6.3717675 -1.1845011 0
11.345122 14.325268 -1.3022939 0
6.0827913 7.7652817 -1.2684268 0
22.322546 28.461348 -2.0089417 0
7.7483044 9.9948816 -1.4097224 0
4.282434 5.6054583 -1.1621984 0
6.0233703 7.9051776 -1.2801108 0
9.2439747 12.183007 -1.4041128 0
4.2377586 5.6803789 -1.1680071 0
7.7247767 10.349194 -1.4449553 0
4.2179456 5.7252598 -1.1735073 0
9.0694418 12.308815 -1.3997548 0
4.1881318 5.7701902 -1.1789747 0
7.6908231 10.60381 -1.4685755 0
10.802601 14.987248 -1.3233335 0
7.6713066 10.723633 -1.480226 0
4.1134148 5.8353105 -1.1793982 0
5.8249445 8.2949953 -1.3145441 0
35.525726 50.4515 0.67399955 0
7.627315 10.973302 -1.5036596 0
10.900949 15.785601 -1.38613 0
5.7554798 8.4299383 -1.3260205 0
33.397694 48.836281 -0.71569431 0
7.6034493 11.25769 -1.5377474 0
32.831768 48.734169 -0.70987999 0
5.6911049 8.5848522 -1.3378533 0
3.9541922 6.0251875 -1.1959879 0
7.529336 11.482603 -1.5555547 0
16.763693 25.677778 0.47044167 0
8.3415117 12.901491 -1.413101 0
4.5593367 7.1412563 -1.2524191 0
17.113531 26.746309 0.47668403 0
11.148322 17.551935 -1.5245855 0
8.1515245 12.927464 -1.4020053 0
7.3502393 11.727946 -1.5728388 0
5.5222602 8.8847513 -1.3660132 0
4.4747972 7.2562957 -1.2584574 0
3.8050058 6.225049 -1.2128149 0
3.7950699 6.2400546 -1.212958 0
3.8002119 6.2748961 -1.2185026 0
16.232471 26.690125 0.47441101 0
16.227959 26.810106 0.47268325 0
15.543152 25.818031 0.4678629 0
16.164804 26.990723 4.14606 0
4.3803287 7.3961616 -1.2747786 0
4.8903642 8.2886457 -1.0070657 0
4.5292478 7.7292795 -0.49580392 0
4.5048265 7.7229881 -0.29046753 0
4.4842229 7.7293983 -0.49543485 0
4.4340401 7.6896825 -0.48945919 0
4.4599986 7.7680426 -0.29077938 0
4.5779967 8.008462 0.32981953 0
15.078026 26.249804 3.2855728 0
4.2758698 7.5361614 -1.2860397 0
4.3427424 7.6876783 -0.89874756 0
4.3643351 7.7696733 -0.49508128 0
15.53727 27.471018 1.2084489 0
14.715107 26.163393 2.559644 0
3.5960376 6.4897995 -1.240049 0
5.194056 9.3649035 -1.4055197 0
4.2276773 7.6830955 -0.89273381 0
4.1976581 7.6782823 -0.88744104 0
4.2236195 7.7615323 -0.69383764 0
4.2244253 7.8050766 -0.48945603 0
4.2207708 7.8322358 -0.079739839 0
15.312586 28.255264 1.9737663 0
15.055364 27.931866 3.4308636 0
15.563453 29.028244 2.7804308 0
15.137468 28.392159 3.473392 0
15.039967 28.359356 2.7195616 0
4.1058755 7.8724427 -0.079389513 0
4.0651169 7.8440051 -0.28368369 0
4.0451264 7.8490453 -0.2835913 0
4.0352049 7.8690367 -0.28379247 0
4.015192 7.8690782 -0.28361508 0
3.9952247 7.8791175 -0.28361169 0
3.9701891 7.8741827 -0.28333244 0
3.9451759 7.8742466 -0.28314027 0
3.9352314 7.8892393 -0.28325382 0
3.9259832 7.92278 -0.078658134 0
3.9059696 7.9228177 -0.078480363 0
3.8752987 7.9094443 -0.27806893 0
3.8553083 7.9144835 -0.27797797 0
3.829623 7.9010086 -0.48258135 0
3.7781832 7.8492942 -0.88147402 0
3.8376245 8.0163603 -1.3244876 0
3.8277111 8.0412779 -1.3297689 0
3.2071941 6.8001294 -1.2563826 0
3.8585179 8.2396364 0.3323383 0
3.7161283 7.9881315 -0.077850491 0
3.6854608 7.9747839 -0.27744076 0
3.6547487 7.9514432 -0.47685996 0
3.6341352 7.9529719 -0.6817373 0
3.5731912 7.8748732 -0.87512743 0
4.5665784 10.08565 -1.4609275 0
3.6732156 8.1864138 -1.3405905 0
3.0927291 6.9498801 -1.2775851 0
3.6737254 8.3198614 0.33274573 0
3.5313203 8.0584955 -0.072310001 0
3.4955735 8.0301132 -0.27663091 0
3.4648652 8.0067978 -0.47605333 0
3.43418 7.9884872 -0.67556143 0
3.4135704 7.9900479 -0.8804388 0
4.3772168 10.275977 -1.4721031 0
3.5237851 8.3514338 -1.3567349 0
2.9581723 7.0748949 -1.2882733 0
3.4687889 8.3701725 0.33373189 0
3.3414652 8.123786 -0.071659267 0
3.3056998 8.0904312 -0.27590027 0
3.2800169 8.0721178 -0.47542557 0
3.2493575 8.0588322 -0.67502117 0
3.2085576 8.0106859 -0.86899877 0
4.1828504 10.476151 -1.4933926 0
3.3592427 8.4916029 -1.3673776 0
3.3442805 8.506546 -1.3724611 0
3.3243332 8.521596 -1.3725302 0
3.3093858 8.536622 -1.3726144 0
3.2894378 8.5516701 -1.3726796 0
3.2794974 8.5715895 -1.37786 0
2.7437615 7.2499638 -1.3040063 0
3.6994383 9.8395138 0.10028739 0
3.066747 8.2391529 -0.070989937 0
3.0966871 8.3703556 -0.28817967 0
3.0654068 8.3536024 -0.69774473 0
3.149714 8.6468039 -1.3828559 0
3.48282 9.6562462 -0.13020146 0
3.0998242 8.6819029 -1.3829149 0
3.3767326 9.5776606 -0.36319545 0
3.0449412 8.72194 -1.3880367 0
4.20507 12.166438 -1.4382206 0
2.5242679 7.4100423 -1.3194184 0
3.6942484 10.931852 -1.5308213 0
3.6443141 10.956998 -1.5307738 0
3.5994081 10.992039 -1.5359043 0
3.5595162 11.027138 -1.5360441 0
3.5146313 11.067178 -1.5412527 0
3.4646735 11.087322 -1.5411181 0
3.4247878 11.127337 -1.546338 0
3.3798943 11.162457 -1.5464605 0
3.9488559 13.229968 -1.5614855 0
4.2374778 14.404084 -0.31587461 0
2.6158795 9.0423346 -1.4189639 0
3.9801176 13.875283 -0.29592833 0
5.2354093 18.385773 -1.8177032 0
5.0343561 18.157 -1.7876325 0
2.4860764 9.1175232 -1.4238944 0
3.5391347 13.39616 -1.5653263 0
2.3862097 9.1677437 -1.4237577 0
2.3113437 9.2178154 -1.4288206 0
-2.6220737 15.259158 -1.747036 0
-2.3195927 12.763076 -1.7052368 0
-5.9248805 31.668976 0.6102159 0
-2.4446659 12.778249 -1.7094519 0
-5.8738031 30.476725 4.9577246 0
-5.9388399 30.491871 4.9630818 0
-1.6699704 8.4135113 -1.4373779 0
-6.5775852 32.776886 2.1846607 0
-3.1555228 15.375154 -1.7513547 0
-6.502089 31.41539 -1.6218464 0
-7.052762 33.86274 0.64251721 0
-6.5549178 31.294968 3.5961869 0
-1.7900335 8.4235468 -1.4415388 0
-2.7449799 12.778659 -1.7170193 0
-6.5612416 30.326078 -1.5555763 0
-6.8735948 31.501244 -0.12487015 0
-7.3360071 33.419327 2.2364602 0
-6.9902749 31.656828 5.1796589 0
-6.8716779 30.839693 5.8102508 0
-2.9000421 12.808805 -1.7261906 0
-6.8625922 30.066961 -1.5394211 0
-7.3997359 32.197739 0.63434541 0
-7.2858858 31.607243 5.1826954 0
-7.3322878 31.557888 6.733602 0
-7.5953693 32.247807 -1.6701943 0
-7.533536 31.9382 3.6946306 0
-2.4144533 10.098916 -1.545838 0
-7.6450319 31.863144 -0.8841033 0
-7.8018975 32.419621 3.7497964 0
-3.1153102 12.79412 -1.7292869 0
-7.8603277 32.19883 0.64298153 0
-7.4785876 30.585081 5.7986917 0
-3.8507755 15.521152 -1.7829177 0
-8.48946 34.177803 2.3045771 0
-2.1004357 8.3787012 -1.4433944 0
-3.9456289 15.591236 -1.7931981 0
-8.6104479 33.967861 2.2985027 0
-2.5846176 10.098997 -1.5544912 0
-8.222188 31.97447 -1.6563188 0
-8.4925232 32.946671 3.0324826 0
-8.1358709 31.413668 5.9718747 0
-7.0430636 26.806908 -2.6360877 0
-8.3944283 31.789877 -0.11710915 0
-8.4478197 31.754869 0.6439538 0
-8.6166315 32.115463 0.65008974 0
-8.7895279 32.380802 -0.90265453 0
-4.2958713 15.631749 -1.8060367 0
-2.7899721 10.049213 -1.5521492 0
-9.4178495 33.634174 2.2996128 0
-4.5707111 16.126833 -0.31082293 0
-4.6285353 16.131845 -1.4806391 0
-2.9101179 10.039284 -1.556073 0
-4.6160769 15.672198 -1.8191543 0
-8.0143919 26.769114 -2.6530449 0
-6.536613 21.475842 -2.0730696 0
-6.5575833 21.211128 -2.0440795 0
-18.509666 58.964264 -3.3114681 0
-2.6261892 8.2788782 -1.4478682 0
-4.066803 12.640431 -1.7346768 0
-7.0815344 21.676693 -2.1068199 0
-2.7263222 8.2638693 -1.4518952 0
-4.2220421 12.615608 -1.7381742 0
-19.159292 56.679661 0.99181831 0
-7.3029509 21.347404 -2.0754695 0
-3.4259167 9.939661 -1.5606995 0
-19.844343 56.82869 -3.1958861 0
-5.5566988 15.783454 -1.8586438 0
-2.9116981 8.1939211 -1.4494979 0
-20.474258 57.118172 1.0152276 0
-7.6244416 21.033178 -2.0535858 0
-3.6211517 9.9197865 -1.5639566 0
-21.104662 57.214821 1.0284079 0
-5.9068332 15.853822 -1.8820751 0
-3.0619583 8.1489601 -1.4477324 0
-3.7465193 9.8448553 -1.5619628 0
-6.1368794 15.909089 -1.8962061 0
-6.2268858 15.934199 -1.9009006 0
-6.3218927 15.959327 -1.905582 0
-6.4169106 15.984391 -1.9152665 0
-6.5119352 16.004517 -1.9198854 0
-6.6019592 16.024624 -1.9245152 0
-6.7069292 16.064716 -1.9343545 0
-6.7969704 16.079823 -1.9389236 0
-6.8919907 16.104883 -1.948601 0
-6.9920163 16.125019 -1.9532063 0
-7.0870419 16.145138 -1.9578228 0
-20.714018 46.821003 3.3335667 0
-5.4844522 12.262031 -1.738991 0
-8.7565889 19.360983 -1.9167068 0
-3.6080742 7.9339161 -1.4457253 0
-7.4870882 16.250546 -1.9865396 0
-21.109753 45.490009 3.2800825 0
-24.904287 53.102032 -3.03725 0
-7.6971154 16.305717 -2.0059066 0
-20.717663 43.843304 11.251142 0
-3.7484069 7.8589463 -1.4387001 0
-25.943474 53.848866 1.0798361 0
-9.3973093 19.341948 -1.9321055 0
-9.4324732 19.30699 -1.9313681 0
-8.0521812 16.391088 -2.0296791 0
-4.6536889 9.4153337 -1.5444936 0
-3.8736868 7.7989192 -1.4370033 0
-21.952446 43.787472 0.94428658 0
-22.32362 44.255081 -0.19492987 0
-22.760458 45.059723 6.872633 0
-22.416155 44.165684 7.9230099 0
-22.905138 44.670197 0.96824014 0
-22.811655 44.244648 0.96356678 0
-6.2260828 11.977639 -1.739949 0
-4.8642149 9.3053751 -1.5415397 0
-4.8892322 9.3053904 -1.5413662 0
-4.909297 9.29039 -1.5410285 0
-23.622972 44.56863 9.2849255 0
-23.758085 44.573963 9.3007145 0
-21.213961 39.550713 7.2144222 0
-4.9845443 9.2304325 -1.5346938 0
-5.0046239 9.2104321 -1.5343003 0
-6.466742 11.84281 -1.7364936 0
-10.414644 18.968365 -1.9351804 0
-24.944447 45.36792 3.4220371 0
-22.082699 40.073917 7.3577423 0
-5.0748692 9.1504555 -1.527987 0
-6.56708 11.767861 -1.734813 0
-10.600074 18.898582 -1.9380226 0
-10.67504 18.928679 -1.94297 0
-10.745023 18.95376 -1.9478698 0
-24.510389 43.078873 -0.16450042 0
-24.21048 42.279835 -1.2855333 0
-29.163063 50.641422 -2.9651287 0
-29.159042 50.366467 -2.9463651 0
-29.194809 50.166515 -2.9383805 0
-25.09388 42.978165 0.99566662 0
-25.035034 42.657719 0.98972166 0
-26.054548 44.310944 5.8189521 0
-24.188303 41.024113 8.8125429 0
-5.325634 8.9704494 -1.5188878 0
-22.462996 37.732441 9.2022429 0
-22.344522 37.340858 9.1218872 0
-6.9631748 11.53314 -1.7240732 0
-5.4108329 8.9303932 -1.5228014 0
-4.5053744 7.3985734 -1.4223152 0
-4.5254164 7.3885698 -1.4220685 0
-23.931625 38.952217 8.4793167 0
-24.046833 38.927364 8.4853067 0
-5.4961777 8.8403807 -1.5160611 0
-7.1187801 11.388193 -1.7161313 0
-7.1438498 11.3732 -1.715772 0
-21.246338 33.777328 9.3689766 0
-7.1940355 11.328215 -1.7148864 0
-5.5864739 8.765379 -1.5094922 0
-4.6608386 7.2784562 -1.4147354 0
-4.6758795 7.2684369 -1.414503 0
-21.868572 33.868057 8.4912271 0
-26.951424 41.424683 -1.2723533 0
-27.877192 42.836472 5.8148494 0
-25.408073 38.940174 8.6331301 0
-5.7117939 8.6903563 -1.507756 0
-7.3796859 11.173273 -1.7066797 0
-22.806982 34.456924 8.6987028 0
-7.4248681 11.128268 -1.7058179 0
-12.816417 19.121103 -2.0526998 0
-27.655855 41.113491 -0.11893019 0
-28.1964 41.839966 5.7550478 0
-22.791981 33.738647 7.6031427 0
-10.721832 15.753819 -2.0993326 0
-27.172783 39.813972 1.0158745 0
-25.909449 37.838024 3.1155362 0
-22.978024 33.523312 7.5920863 0
-23.732668 34.488876 8.8185368 0
-7.610507 10.973314 -1.6976641 0
-7.6355896 10.953318 -1.6972617 0
-13.471658 19.221846 -2.0903895 0
-28.267281 40.23138 1.0364116 0
-27.526451 39.11758 5.4827619 0
-27.559645 38.984692 6.604805 0
-24.395664 34.403927 7.8782148 0
-23.68051 33.285423 9.6144066 0
-23.750822 33.225307 9.6105947 0
-11.138203 15.444186 -2.0878577 0
-29.533726 40.81163 -0.10450351 0
-26.352821 36.299953 2.0283785 0
-27.369547 37.572025 4.257278 0
-6.0981274 8.3451147 -1.4909067 0
-26.184628 35.72324 9.3355494 0
-11.298831 15.294271 -2.0849988 0
-27.291069 36.82935 -0.063819528 0
-29.251673 39.366837 3.3385322 0
-26.539722 35.650452 7.2335978 0
-6.1884322 8.2650337 -1.48936 0
-14.801361 19.658285 -2.1939464 0
-28.98987 38.454769 3.2841425 0
-5.1873875 6.867826 -1.401228 0
-24.758728 32.715443 9.6677713 0
-30.123871 39.456703 -2.3987 0
-29.841059 39.119545 6.8203239 0
-6.2687392 8.1799736 -1.4827944 0
-25.315887 32.998692 10.832088 0
-27.159922 35.138603 0.98784375 0
-26.995623 34.935879 8.2601004 0
-14.663942 18.847979 -2.1189892 0
-28.759996 36.878414 1.0284176 0
-5.2926836 6.7876596 -1.3995857 0
-6.3390718 8.0848808 -1.4761537 0
-11.785405 14.929571 -2.0776172 0
-28.049536 35.455502 1.0083306 0
-5.3428259 6.7476001 -1.3988149 0
-8.1631613 10.258209 -1.6501702 0
-8.2081633 10.268211 -1.6550647 0
-8.2232838 10.233182 -1.6545439 0
-11.955957 14.799659 -2.0750337 0
-30.049892 37.052536 -1.1575265 0
-30.818079 37.888187 1.0757866 0
-5.4330792 6.6774516 -1.3974141 0
-6.4796534 7.9197063 -1.4682746 0
-6.4897237 7.8996644 -1.4679509 0
-5.4582806 6.6123724 -1.3914438 0
-6.5048995 7.8396707 -1.4571043 0
-26.85186 32.31834 9.9237032 0
-16.806749 20.050331 -2.3387399 0
-12.23703 14.534728 -2.0701609 0
-17.031672 20.125622 -2.3536136 0
-25.686977 30.368629 10.393141 0
-17.131956 20.065664 -2.3573301 0
-29.725077 34.664158 -2.1533613 0
-32.743744 38.032467 -1.2167872 0
-17.39209 20.085953 -2.3713338 0
-30.195265 34.719898 -2.166821 0
-29.796158 34.233677 3.1530886 0
-5.618835 6.4470539 -1.3834788 0
-32.249542 36.86488 10.346637 0
-8.6199226 9.7879143 -1.6367747 0
-25.816439 29.289431 10.217587 0
-12.613442 14.174846 -2.058707 0
-31.260773 35.034077 -0.020452112 0
-32.737755 36.718315 9.215704 0
-31.281778 34.989872 12.236105 0
-33.552425 37.282009 1.1269274 0
-33.361797 37.01598 6.9550023 0
-32.757271 36.253857 10.331781 0
-8.7604885 9.6278257 -1.629074 0
-18.467569 20.197012 -2.4426017 0
-18.547646 20.192083 -2.4471664 0
-18.602823 20.147139 -2.4463732 0
-18.568205 20.022047 -2.4349389 0
-29.297602 31.669924 14.544137 0
-31.768127 34.086811 3.2492547 0
-6.9263749 7.419035 -1.4446269 0
-8.8860626 9.4626875 -1.6213828 0
-8.9011497 9.4376526 -1.6209925 0
-6.9665732 7.3589282 -1.4436858 0
-8.941309 9.3926086 -1.6202452 0
-32.059376 33.564529 1.0768638 0
-34.085087 35.665527 8.0754347 0
-13.165333 13.694884 -2.0550601 0
-30.575621 31.76531 3.0978839 0
-29.712713 30.792164 6.0314655 0
-29.768852 30.757826 8.0720272 0
-13.245705 13.589897 -2.0483906 0
-19.890608 20.341673 -1.2128001 0
-30.562702 31.179132 3.075125 0
-5.9600401 6.0712833 -1.3670989 0
-9.0620012 9.1824188 -1.6070585 0
-19.869186 20.013231 -2.5139592 0
-30.688862 30.873745 3.0694382 0
-5.9802127 6.0111771 -1.3612527 0
-7.1472497 7.1535916 -1.4352828 0
-33.762955 33.656887 10.118795 0
-29.365824 29.171572 9.8301163 0
-38.964764 38.369591 -2.5777323 0
-31.596651 31.110918 4.1605911 0
-7.2025061 7.0734468 -1.4340594 0
-29.785973 29.187551 9.9067268 0
-28.722996 28.035545 10.536391 0
-31.241165 30.32353 3.0786335 0
-6.0755858 5.8908668 -1.3593338 0
-28.388882 27.423258 8.4322824 0
-28.844074 27.774712 10.515105 0
-31.362291 30.023115 3.0728028 0
-33.099583 31.631472 7.5409193 0
-32.791027 31.194544 7.4599428 0
-9.298254 8.7970295 -1.5862831 0
-29.877741 28.238976 10.793761 0
-34.693081 32.634789 4.4600439 0
-29.390505 27.606541 7.6441531 0
-30.708092 28.752834 10.000906 0
-13.728565 12.749578 -2.0059469 0
-35.933502 33.322491 3.4467254 0
-35.845364 33.176605 8.0335569 0
-35.681416 32.865341 7.9816241 0
-29.567327 27.135328 7.6155505 0
-9.3989401 8.5767603 -1.5731754 0
-13.78931 12.514392 -1.9928565 0
-13.784486 12.45434 -1.98715 0
-38.020924 34.254906 1.2037271 0
-35.458366 31.838699 3.3676274 0
-7.4686699 6.6977625 -1.41834 0
-13.824903 12.319277 -1.9753678 0
-39.895172 35.373852 -2.4725661 0
-36.018444 31.90975 3.3990209 0
-7.4988437 6.6376648 -1.4124837 0
-13.855341 12.179137 -1.9685669 0
-38.572739 33.810116 1.2162144 0
-6.2567043 5.4900632 -1.3236876 0
-23.874479 20.777279 -2.8266876 0
-38.678532 33.589958 1.219238 0
-31.170238 27.068594 6.8479342 0
-9.574892 8.2713585 -1.5588007 0
-34.777512 29.892998 -1.0072757 0
-6.3118744 5.4348688 -1.3278139 0
-13.936146 11.918953 -1.9501507 0
-34.94101 29.783192 0.059753507 0
-6.3119907 5.3897719 -1.3222649 0
-13.971404 11.838865 -1.9490702 0
-35.603428 30.084749 1.1388116 0
-7.6044512 6.427279 -1.399561 0
-31.547695 26.625668 11.894773 0
-35.082516 29.342812 0.065429047 0
-6.3571658 5.324646 -1.3163276 0
-30.634954 25.580273 9.5283813 0
-25.559397 21.144032 -2.9645813 0
-40.303612 33.341415 4.9136577 0
-31.83448 26.321434 8.8541384 0
-39.269878 32.205498 -2.3175666 0
-34.666759 28.46986 7.4347248 0
-32.955555 27.000984 10.160456 0
-31.6157 25.837307 11.774228 0
-37.25975 30.243357 3.4133353 0
-33.053127 26.820833 9.1178312 0
-31.025074 25.098433 10.525517 0
-36.847755 29.570587 0.069326356 0
-37.447319 30.055267 7.941577 0
-7.6952147 6.1517396 -1.3809845 0
-14.213118 11.288403 -1.9217324 0
-37.851242 29.911634 -2.1811814 0
-36.8452 29.166328 7.7846398 0
-7.7203908 6.0866213 -1.3751353 0
-14.263483 11.168303 -1.9151716 0
-37.097866 28.965137 1.1672679 0
-7.7255211 6.0365272 -1.3695316 0
-9.8766851 7.6704531 -1.5306313 0
-28.378815 21.887043 -3.2129631 0
-40.690399 31.392563 4.8525229 0
-33.847912 26.075359 8.134161 0
-33.183044 25.461138 8.9789019 0
-7.7857914 5.9412937 -1.3682225 0
-7.7808633 5.9112501 -1.3628924 0
-14.359629 10.7779 -1.8903713 0
-6.568233 4.923562 -1.2958761 0
-7.8161702 5.7959995 -1.3564646 0
-44.483395 32.670025 10.446202 0
-42.845528 31.144606 8.7629642 0
-43.001194 30.964376 8.7704916 0
-14.471122 10.257289 -1.8591506 0
-14.476374 10.167162 -1.8531244 0
-10.143396 7.0643988 -1.5028728 0
-6.6839943 4.6177216 -1.2770463 0
-10.193775 6.9241471 -1.4961749 0
-6.7092233 4.5224547 -1.2709166 0
-10.209177 6.768856 -1.484427 0
-6.7594104 4.4472027 -1.2699323 0
-10.244537 6.6286082 -1.4727947 0
-6.7796335 4.3519192 -1.263835 0
-10.274914 6.483304 -1.4661478 0
-6.7998447 4.2566786 -1.2527518 0
-10.300278 6.338027 -1.454528 0
-6.8400345 4.1763959 -1.2517751 0
-10.340621 6.2027416 -1.4479891 0
-6.8552599 4.076098 -1.2456828 0
-10.38096 6.0674548 -1.441469 0
-6.8854475 3.9908309 -1.2397046 0
-10.426291 5.9371328 -1.4399995 0
-6.9056435 3.9005406 -1.2337137 0
-10.441634 5.7918258 -1.4284741 0
-6.9058623 3.7952454 -1.2226434 0
-10.481958 5.6565323 -1.4220098 0
-6.9360485 3.7099342 -1.2217027 0
-14.642867 7.678308 -1.6914954 0
-8.3047609 4.3221664 -1.2792853 0
-14.618402 7.4528947 -1.6743454 0
-8.3200006 4.2118387 -1.2731578 0
-14.608905 7.2424703 -1.6623198 0
-8.3352394 4.0965524 -1.2620059 0
-14.604389 7.0370584 -1.6503552 0
-8.3554602 3.991235 -1.2559413 0
-14.579881 6.8216386 -1.6333684 0
-8.3557005 3.8758707 -1.2498423 0
-14.565351 6.6162009 -1.6214733 0
-8.3809147 3.770561 -1.2437985 0
-14.560803 6.4157825 -1.609627 0
-10.579288 4.6139541 -1.3617418 0
-7.0773468 3.0526452 -1.1850315 0
-7.0924039 3.0225227 -1.18472 0
-14.556578 6.0650525 -1.5864429 0
-8.4215145 3.4695899 -1.2309517 0
-56.463299 22.719757 -2.6435204 0
-14.512213 5.7693892 -1.5689117 0
-10.565231 4.1527233 -1.3326271 0
-8.4468632 3.2839854 -1.2192413 0
-14.452806 5.4837332 -1.5465319 0
-8.4620571 3.1786454 -1.2132918 0
-14.4382 5.2932868 -1.5349215 0
-8.4722557 3.0732586 -1.2123644 0
-14.448576 5.1128554 -1.5283732 0
-8.4724455 2.9629242 -1.2014292 0
-7.1633511 2.4754496 -1.1547639 0
-7.1534133 2.4353101 -1.1494459 0
-14.389272 4.7619977 -1.5055711 0
-8.487771 2.7772527 -1.1948537 0
-14.354641 4.5715098 -1.4940839 0
-8.4879475 2.6718774 -1.1889936 0
-58.445244 17.834866 -2.6141965 0
-14.315135 4.3108473 -1.4770708 0
-8.4831915 2.521363 -1.1777989 0
-14.270491 4.1203399 -1.4656557 0
-14.235637 4.0401087 -1.4600919 0
-8.478426 2.3758116 -1.1716664 0
-7.2191052 1.9884721 -1.1357431 0
-14.151108 3.7743928 -1.438223 0
-8.4836521 2.2302759 -1.1655636 0
-7.1592817 1.8529416 -1.114817 0
-14.056567 3.5086546 -1.4164203 0
-14.006705 3.4283972 -1.4109161 0
-21.464029 5.139607 -1.7871029 0
-66.580002 15.699717 5.0444498 0
-8.4140291 1.9692838 -1.143765 0
-10.318377 2.3622091 -1.2087573 0
-10.30346 2.3070371 -1.2033918 0
-13.797379 3.0171528 -1.373319 0
-7.1346793 1.5516512 -1.0976815 0
-13.747553 2.9068315 -1.3626312 0
-58.376858 12.062943 1.662698 0
-8.3543673 1.7183086 -1.1220951 0
-13.677841 2.7262743 -1.3515058 0
-58.463249 11.386626 1.6673027 0
-8.3145103 1.6078851 -1.111403 0
-13.588099 2.5557175 -1.3354936 0
-59.649921 10.860004 -2.5377736 0
-8.2796316 1.5074717 -1.100782 0
-10.1242 1.7901641 -1.1651487 0
-19.646967 3.3591752 -1.5776149 0
-7.0600724 1.205124 -1.0654451 0
-8.2348108 1.3618726 -1.0898958 0
-19.427378 3.0933654 -1.5512252 0
-7.0251737 1.1146978 -1.0599098 0
-19.282625 2.9328589 -1.5354155 0
-7.030221 1.0694685 -1.0596169 0
-8.1749926 1.201198 -1.0739599 0
-10.03468 1.4237986 -1.1429535 0
-13.139192 1.7931749 -1.2662674 0
-61.965176 8.1080227 -2.6078815 0
-8.1501474 1.0656024 -1.0681621 0
-13.039402 1.6326071 -1.2504357 0
-6.990416 0.86853939 -1.0434337 0
-8.1252489 0.97017503 -1.0626242 0
-18.488844 2.0900633 -1.4463937 0
-6.965497 0.7831291 -1.0379585 0
-9.895113 1.0574132 -1.110955 0
-18.264164 1.8542675 -1.4203298 0
-8.0804071 0.81449354 -1.0517759 0
-12.789928 1.2161291 -1.2133515 0
-6.920608 0.65247965 -1.0272614 0
-9.8053131 0.87164336 -1.0950187 0
-17.984646 1.4980438 -1.3937057 0
-6.9106736 0.5720942 -1.0218239 0
-9.7454376 0.75613213 -1.0894592 0
-12.595288 0.90998262 -1.1869185 0
-6.8807364 0.4916777 -1.0164205 0
-7.9806714 0.52820057 -1.0303181 0
-22.204021 1.3424308 -0.73793197 0
-17.60524 1.0264184 -1.351673 0
-7.9557276 0.4578554 -1.0249795 0
-17.4904 0.89595556 -1.341141 0
-9.6107035 0.47999784 -1.0631663 0
-17.380537 0.77553058 -1.3256687 0
-64.309425 2.5211287 -2.6602333 0
-6.7958841 0.27054459 -0.99536562 0
-6.7709064 0.23537341 -0.9902159 0
-6.7709265 0.20521462 -0.99006665 0
-7.8559232 0.20164819 -1.0038052 0
-16.961033 0.33387125 -1.2840213 0
-64.066582 0.94774181 1.8319095 0
-7.8059831 0.11121199 -0.99342859 0
-16.771242 0.13810851 -1.2683324 0
-6.6910114 0.049379908 -0.97440708 0
-11.946174 0.026417555 -1.1033236 0
-7.746047 0.0056764325 -0.98300695 0
-6.671041 -0.010940296 -0.96915066 0
-11.86127 -0.084039226 -1.0929238 0
-63.874161 -0.83539337 -2.6254981 0
-7.6961141 -0.099868037 -0.97758806 0
-11.78639 -0.21960288 -1.0874163 0
-63.635098 -1.5569903 -2.6127563 0
-7.6511555 -0.18529683 -0.96726775 0
-11.711501 -0.35514024 -1.0769252 0
-63.631023 -2.2782862 -2.6098409 0
-7.6062074 -0.2757498 -0.96193063 0
-11.601593 -0.48072487 -1.0665389 0
-63.416904 -2.994832 -2.5972707 0
-7.5662417 -0.35619655 -0.95665073 0
-11.516681 -0.60627335 -1.0561399 0
-63.327755 -3.7012503 -2.594708 0
-7.5212755 -0.44162187 -0.94635952 0
-11.421764 -0.73183179 -1.0457648 0
-6.466187 -0.4232749 -0.93263674 0
-8.9464865 -0.63017052 -0.96900058 0
-16.077532 -1.2216679 -1.2035681 0
-6.4462018 -0.49367476 -0.92739356 0
-8.8915386 -0.7306599 -0.96368992 0
-15.997679 -1.4022995 -1.1980141 0
-6.3862095 -0.56410301 -0.91719985 0
-8.8215675 -0.82114226 -0.95345497 0
-15.922808 -1.5778978 -1.1875007 0
-6.3112078 -0.62955028 -0.90705335 0
-8.7766132 -0.92161572 -0.94815636 0
-12.370892 -1.3459927 0.29750478 0
-11.127068 -1.2490801 -1.014284 0
-8.7216387 -0.9970125 -0.94296837 0
-8.7116365 -1.0120888 -0.93793678 0
-6.3112316 -0.74518317 -0.90666008 0
-6.2762265 -0.77036333 -0.901618 0
-8.6516685 -1.1075783 -0.93269873 0
-15.848201 -2.114635 -1.1858912 0
-15.823247 -2.1848848 -1.1857123 0
-7.181406 -0.99974865 -0.89980853 0
-15.803322 -2.2952368 -1.1854103 0
-6.2112246 -0.90619063 -0.89126933 0
-8.5166988 -1.2835512 -0.91733897 0
-10.847255 -1.6961163 -0.98826563 0
-15.778478 -2.5460305 -1.1847479 0
-6.146214 -0.99680221 -0.88608313 0
-8.4167166 -1.4092381 -0.90710402 0
-54.277893 -9.4286308 -2.1976697 0
-6.1062036 -1.0622226 -0.88094914 0
-6.0761838 -1.0823722 -0.87093747 0
-6.9914007 -1.2814536 -0.87924981 0
-9.5369635 -1.8033684 -0.83964324 0
-9.636879 -1.8293765 4.6655321 0
-9.6278782 -1.8591455 3.6105993 0
-9.411521 -1.856864 -0.37469354 0
-9.396533 -1.8819786 -0.37464187 0
-9.5844793 -1.9170272 1.9006604 0
-6.9213886 -1.4021493 -0.8690325 0
-9.3467312 -1.913178 -0.59464216 0
-9.5749292 -1.9642869 1.4357611 0
-9.3369465 -1.9392489 -0.81958532 0
-9.6053648 -1.9963186 0.98087633 0
-6.8813758 -1.4424196 -0.86399019 0
-9.5411978 -2.0203917 0.070866495 0
-9.4753609 -2.0167224 0.97575414 0
-6.8613734 -1.4726062 -0.86394322 0
-9.3069592 -2.0196469 -0.81944788 0
-9.3019609 -2.0397434 -0.81941259 0
-5.9161129 -1.3088903 -0.85057747 0
-9.506443 -2.1520128 -0.15888959 0
-9.3067818 -2.1291604 -0.59421396 0
-8.1717443 -1.8917698 -0.88625896 0
-9.321804 -2.1994443 -0.59904945 0
-9.332016 -2.2304544 -0.82396197 0
-6.7613339 -1.6285747 -0.85374129 0
-54.684052 -13.443363 5.6363459 0
-9.4268665 -2.3398359 -0.60862434 0
-14.788853 -3.7561183 -1.1183552 0
-6.6962981 -1.7090957 -0.84367526 0
-56.438534 -14.73405 1.7411664 0
-6.6562791 -1.7493633 -0.83865237 0
-10.042342 -2.6911397 -0.91710413 0
-6.6212535 -1.7846251 -0.83364737 0
-9.9873333 -2.7514577 -0.91208088 0
-55.267071 -15.426091 9.8153439 0
-7.9566813 -2.2487283 -0.86590254 0
-58.460083 -16.849842 1.8074442 0
-5.6559238 -1.6362475 -0.82030213 0
-9.8673048 -2.9073005 -0.90703166 0
-5.6208935 -1.6664988 -0.81530845 0
-6.4661555 -1.9507874 -0.81860495 0
-9.80229 -3.0128083 -0.90197694 0
