# .PCD v0.7 - Point Cloud Data file format
VERSION 0.7
FIELDS x y z intensity
SIZE 4 4 4 4
TYPE F F F F
COUNT 1 1 1 1
WIDTH 1381
HEIGHT 1
VIEWPOINT 0 0 0 1 0 0 0
POINTS 1381
DATA ascii
-13.970996 4.7797003 -1.8696177 0
-56.75964 18.800241 -2.7931676 0
-13.8204 4.5201116 -1.8374383 0
-10.383613 3.3640163 -1.5704622 0
-8.5125399 2.7237084 -1.4461498 0
-21.397963 6.5853157 -2.4465621 0
-10.288119 3.1541827 -1.5437607 0
-20.872183 6.171905 -2.367357 0
-10.222789 3.0093038 -1.5225883 0
-8.3918552 2.438786 -1.4088473 0
-13.333663 3.7364187 -1.7307911 0
-8.3515692 2.3237703 -1.3979466 0
-13.163235 3.531862 -1.6989417 0
-10.051991 2.6645725 -1.4797688 0
-19.264786 4.9016128 -2.1345012 0
-19.064518 4.757174 -2.1079984 0
-12.907486 3.1824908 -1.6508914 0
-9.9364262 2.4147377 -1.4477593 0
-8.20574 1.9688108 -1.3501067 0
-56.45303 12.779946 0.032773376 0
-57.21772 12.678549 0.03135711 0
-9.8559484 2.2097976 -1.4261433 0
-18.042797 3.860054 -1.9592495 0
-9.790657 2.0798769 -1.4100854 0
-17.73727 3.5858848 -1.9166007 0
-9.7253704 1.9499531 -1.3940321 0
-17.466782 3.3266332 -1.8741474 0
-12.235633 2.2890496 -1.5230819 0
-9.5999899 1.7701467 -1.3674766 0
-42.069786 7.2367759 -1.8818538 0
-16.95591 2.8679712 -1.8047388 0
-63.286137 10.30137 1.5202628 0
-7.9342647 1.3237545 -1.2699764 0
-7.9091763 1.2837651 -1.2646365 0
-63.659229 9.4763708 1.5295472 0
-32.310764 4.6695223 -1.3684626 0
-7.8489165 1.1637579 -1.2486612 0
-61.703701 8.2740202 -2.8574486 0
-62.433205 8.0926266 -2.8882589 0
-16.00441 2.0453389 -1.6717112 0
-27.253626 3.3159995 -1.1057835 0
-9.2036781 1.1405703 -1.2821685 0
-11.413793 1.3456951 -1.3795538 0
-9.1184959 1.0456828 -1.2663001 0
-7.68326 0.85868472 -1.2111338 0
-7.6681776 0.81866652 -1.2058283 0
-62.548409 5.7991323 -2.8688319 0
-7.6330328 0.74863911 -1.195254 0
-8.94806 0.82583636 -1.2343572 0
-7.5778799 0.67364883 -1.1845996 0
-15.04283 1.1625022 -1.5382961 0
-11.002767 0.82127994 -1.3149608 0
-10.967668 0.77131671 -1.3095326 0
-10.912573 0.71641576 -1.2990243 0
-10.867465 0.66147012 -1.2935449 0
-8.757412 0.50587517 -1.1967205 0
-14.487083 0.72867364 -1.4689534 0
-17.210831 0.7947408 -0.18184143 0
-10.722136 0.48167083 -1.2669752 0
-17.203283 0.66081816 -0.98600376 0
-62.479 1.9762926 0.085583553 0
-8.6070118 0.30094266 -1.1699634 0
-22.755514 0.58590072 -1.9209049 0
-65.609093 1.2811986 -2.9788718 0
-7.2668948 0.18351819 -1.1154897 0
-7.2468138 0.14848055 -1.1152074 0
-7.2367554 0.11844801 -1.1099775 0
-7.2066894 0.083451673 -1.1046683 0
-7.1716318 0.053464931 -1.0993705 0
-8.401453 0.010978203 -1.1325077 0
-13.54569 -0.084528983 -1.3511679 0
-13.480595 -0.14440405 -1.3406096 0
-13.425486 -0.20432185 -1.3350803 0
-13.355392 -0.26418984 -1.3245099 0
-64.598495 -1.8243364 -2.9120288 0
-8.2260809 -0.19394261 -1.100705 0
-20.983482 -0.6950081 -1.7430177 0
-7.0011287 -0.20169061 -1.0672438 0
-9.9905891 -0.36256105 -1.1595439 0
-63.796577 -2.9568329 -2.86796 0
-9.9354811 -0.4275066 -1.1489817 0
-6.9209647 -0.2917071 -1.0514393 0
-12.157359 -0.61266631 -0.32398191 0
-12.134995 -0.64667612 -1.1787331 0
-63.76482 -3.9710054 -2.8617904 0
-8.0305843 -0.45898333 -1.0684725 0
-12.78942 -0.83333784 -1.2594056 0
-63.408669 -4.6697545 -2.8416393 0
-7.9704189 -0.54900897 -1.0577435 0
-12.709176 -0.97326642 -1.248325 0
-63.312458 -5.38904 -2.837117 0
-7.9252515 -0.63408703 -1.0520817 0
-12.558967 -1.1030512 -1.2321141 0
-6.7204261 -0.57692915 -1.0140746 0
-63.19104 -6.2531543 -2.8267066 0
-12.428806 -1.2078509 -1.2161205 0
-9.5096064 -0.92725182 -1.0896939 0
-9.4945574 -0.95225835 -1.0895053 0
-9.5934048 -0.9667486 2.3003824 0
-7.7999353 -0.80416262 -1.035679 0
-9.6176853 -1.0179399 2.0706174 0
-9.6426487 -1.0380014 2.0756774 0
-9.5831881 -1.0569006 2.3009555 0
-9.6660004 -1.0946963 -0.4290925 0
-9.5645285 -1.0883009 0.92619419 0
-9.5850611 -1.1123363 1.1512866 0
-6.5850773 -0.7621159 -0.99254024 0
-9.319273 -1.1221546 -1.0679755 0
-9.3103905 -1.1401218 -0.6228323 0
-9.5614014 -1.1886272 -0.19822389 0
-9.5169525 -1.2025521 0.026991099 0
-9.431941 -1.2124197 0.032288164 0
-9.4563074 -1.2385305 -0.19262686 0
-9.2951813 -1.2452664 -0.62215412 0
-7.6345291 -1.0342789 -1.0088084 0
-9.2950535 -1.3103683 -0.62176347 0
-7.5794635 -1.0792511 -0.99838138 0
-66.117493 -10.091228 7.957706 0
-9.3348579 -1.4055939 -0.62630844 0
-9.023859 -1.381956 -1.0305949 0
-6.3996973 -0.97730458 -0.96069658 0
-9.3996525 -1.5008837 -0.63591778 0
-7.4742389 -1.2043281 -0.98733389 0
-7.4691792 -1.2343946 -0.9871335 0
-11.532591 -1.9967617 -1.1189339 0
-62.349361 -11.322779 1.6348163 0
-6.2644939 -1.097393 -0.93958116 0
-7.3340306 -1.3343447 -0.96616244 0
-7.2889934 -1.3593241 -0.96088696 0
-11.302305 -2.1965146 -1.0921379 0
-17.199526 -3.4574723 -1.3911625 0
-6.1543083 -1.2124903 -0.91858709 0
-8.6532431 -1.7718894 -0.98226595 0
-17.054285 -3.6272519 -1.3798013 0
-7.1737418 -1.5094515 -0.94468212 0
-56.322392 -12.492106 1.5276903 0
-7.1186976 -1.5444334 -0.93431818 0
-56.511738 -12.937155 1.5346202 0
-7.0636325 -1.5844382 -0.92893362 0
-56.221222 -13.286482 1.5322989 0
-7.0285687 -1.6244761 -0.9235996 0
-10.826749 -2.5910835 -1.0435714 0
-8.4078627 -2.0169084 -0.95516539 0
-6.9784694 -1.6845305 -0.91811824 0
-7.3415947 -1.7891632 0.43652201 0
-10.70161 -2.6909871 -1.0326666 0
-6.8934155 -1.7245082 -0.9076438 0
-6.8883801 -1.7445394 -0.90752077 0
-8.2827053 -2.1268926 -0.9391942 0
-15.89369 -4.1802964 -1.2835588 0
-7.2201514 -1.8715483 -0.087686896 0
-7.0764432 -1.8440679 0.43256879 0
-7.189682 -1.9023334 -0.25743428 0
-6.7982841 -1.8145691 -0.89186156 0
-10.411381 -2.8707206 -1.0058703 0
-5.8036776 -1.5830635 -0.87042308 0
-15.443466 -4.3995881 -1.2461417 0
-8.0724688 -2.291873 -0.91769004 0
-58.467655 -17.185261 4.4672689 0
-6.6631103 -1.9296511 -0.87584054 0
-5.7335482 -1.6632063 -0.85976982 0
-15.113295 -4.5690932 -1.2193388 0
-7.932343 -2.3868482 -0.90177441 0
-54.793789 -17.028532 6.9162178 0
-7.8822799 -2.4318602 -0.8963902 0
-5.6434288 -1.7383227 -0.84909713 0
-55.989799 -18.023325 1.5831302 0
-10.04592 -3.2155817 -0.9729867 0
-5.6183562 -1.7834333 -0.84376872 0
-7.7571459 -2.5268867 -0.88552427 0
-6.4528465 -2.1098278 -0.84925389 0
-7.7120843 -2.5719099 -0.88015699 0
-7.6770554 -2.5969107 -0.87492347 0
-14.287939 -4.9629097 -1.1500382 0
-14.17291 -4.9977584 -1.1445531 0
-14.047906 -5.0225725 -1.1340897 0
-13.927903 -5.0473952 -1.1236391 0
-13.812885 -5.0822263 -1.1131593 0
-55.109249 -20.621843 7.1038313 0
-6.2025809 -2.2950456 -0.8225534 0
-6.1725559 -2.3150673 -0.81736517 0
-6.1475301 -2.3350978 -0.81218982 0
-6.1124935 -2.355135 -0.81199217 0
-6.0774684 -2.3751514 -0.80679524 0
-6.057425 -2.4002106 -0.80661154 0
-6.0174069 -2.4152207 -0.80142581 0
-6.0023746 -2.4402664 -0.79625463 0
-7.1665735 -2.9621086 -0.82163298 0
-43.871868 -18.693787 -1.9724619 0
-5.9322963 -2.4903688 -0.79080832 0
-9.0151606 -3.8651683 -0.8818723 0
-42.866909 -18.847021 -1.9292428 0
-8.9401245 -3.9051347 -0.87147987 0
-5.1076732 -2.2194412 -0.78002286 0
-12.442522 -5.5606923 -1.0072472 0
-5.8221521 -2.5855732 -0.78002942 0
-19.507391 -8.9165201 -1.233745 0
-6.9063416 -3.1322925 -0.8000921 0
-42.066189 -19.64048 -1.9035351 0
-8.6899834 -4.0350866 -0.85020018 0
-4.9775519 -2.2996616 -0.7642653 0
-12.022421 -5.7052946 -0.97549534 0
-5.7019939 -2.6908143 -0.76918399 0
-18.56251 -8.9951525 -1.1760426 0
-6.7112241 -3.2323673 -0.77909505 0
-41.695156 -20.644661 -1.9029868 0
-8.4598408 -4.1600986 -0.83400702 0
-5.581934 -2.7409053 -0.75361979 0
-11.60235 -5.8299165 -0.94385946 0
-5.536901 -2.7659593 -0.74837947 0
-17.697622 -9.0789337 -1.1185495 0
-6.5161233 -3.3224518 -0.75815678 0
-30.498003 -15.952018 -1.3327 0
-8.2047338 -4.2700658 -0.8128438 0
-4.7772756 -2.4752429 -0.74285471 0
-11.157332 -5.9245038 -0.90732503 0
-5.3917866 -2.8511593 -0.73259068 0
-16.952667 -9.1879759 -1.0762624 0
-6.3360138 -3.4125862 -0.74226689 0
-28.338848 -15.653705 -1.2339591 0
-7.9646306 -4.380065 -0.7917335 0
-4.6421819 -2.5404735 -0.72718477 0
-10.742301 -6.0241718 -0.87586451 0
-5.2566805 -2.9313796 -0.71685684 0
-16.242735 -9.2820959 -1.0341581 0
-6.1709008 -3.5077486 -0.72640443 0
-26.994106 -15.721726 -1.1805409 0
-7.7195497 -4.47507 -0.77069402 0
-4.552043 -2.6258099 -0.72153926 0
-10.33729 -6.108871 -0.84451544 0
-5.1265602 -3.0166318 -0.70612657 0
-15.372989 -9.2559834 -0.97725213 0
-6.000803 -3.5929124 -0.71058726 0
-25.999142 -15.940313 -1.1423203 0
-7.4744773 -4.5650854 -0.74969471 0
-4.4219532 -2.6910596 -0.70590258 0
-9.9722481 -6.2036796 -0.82323599 0
-4.9914556 -3.0918851 -0.69543862 0
-14.608191 -9.250082 -0.93052733 0
-5.8356981 -3.6781106 -0.69979548 0
-24.174992 -15.587722 -1.0597531 0
-7.2493978 -4.655158 -0.73375571 0
-4.3118553 -2.7563605 -0.69531798 0
-9.6022377 -6.2834787 -0.79703283 0
-4.8613634 -3.1671307 -0.67977345 0
-13.948323 -9.2843847 -0.89389694 0
-5.6806002 -3.7683074 -0.68401933 0
-4.2467723 -2.8115966 -0.68990159 0
-22.420828 -15.250308 -0.97732627 0
-9.3222408 -6.3383508 -0.77615607 0
-4.7313118 -3.2073078 -0.66927695 0
-13.368513 -9.2537575 -0.85774517 0
-5.5455465 -3.8184659 -0.67347312 0
-21.246441 -14.958749 -0.92601097 0
-6.8442883 -4.8003016 -0.70217896 0
-4.1266623 -2.8869421 -0.67926717 0
-8.9672508 -6.4031982 -0.7500869 0
-4.5962415 -3.2675593 -0.65368259 0
-12.713717 -9.2331018 -0.81640875 0
-5.3704824 -3.8836534 -0.65778089 0
-19.832167 -14.641926 -0.85931563 0
-6.6142397 -4.8703971 -0.68635929 0
-3.9966042 -2.9322143 -0.66375065 0
-8.6422472 -6.4731164 -0.72908092 0
-4.4861293 -3.3478849 -0.64807105 0
-12.12887 -9.2375975 -0.785146 0
-5.2154055 -3.9538922 -0.64712191 0
-18.572803 -14.370385 -0.80280256 0
-6.389215 -4.9304895 -0.66560519 0
-3.8965137 -2.9975469 -0.65322518 0
-8.2872944 -6.5079956 -0.70317435 0
-5.1003628 -3.9990437 -0.63667178 0
-17.688284 -14.144332 -0.76190639 0
-6.2441864 -4.9755902 -0.65509939 0
-4.3010297 -3.4282842 -0.6322974 0
-45.930759 -37.503288 -1.0464983 0
-8.0273209 -6.5379581 -0.68750274 0
-4.2559948 -3.4584062 -0.62706804 0
-11.034285 -9.1366653 -0.71829081 0
-4.925303 -4.0642991 -0.62100971 0
-16.508879 -13.888038 -0.71556723 0
-6.0041552 -5.0357461 -0.63933837 0
-3.6963754 -3.0931468 -0.6373502 0
-16.114086 -13.807607 -0.69510901 0
-5.92414 -5.0608168 -0.63406777 0
-3.6563442 -3.1182806 -0.63215363 0
-7.6023555 -6.607934 -0.65634906 0
-4.0709109 -3.5288198 -0.61136031 0
-10.324514 -9.1161985 -0.67695963 0
-4.7202048 -4.1546917 -0.61019516 0
-15.17956 -13.616654 -0.65405118 0
-5.7141209 -5.1109767 -0.61843073 0
-3.5562618 -3.1736474 -0.62669706 0
-20.189854 -18.461124 -0.33015105 0
-9.9346428 -9.1009808 -0.65626478 0
-7.2174287 -6.6279144 -0.63050294 0
-4.5751739 -4.1999049 -0.59470832 0
-14.379972 -13.4409 -0.62322247 0
-5.5241132 -5.1511221 -0.60288703 0
-3.4611986 -3.2239552 -0.61628354 0
-9.5497847 -9.0707808 -0.63565099 0
-5.4391098 -5.1661949 -0.59765851 0
-3.8157983 -3.6244466 -0.59042096 0
-19.070196 -18.495075 -0.31300846 0
-9.3398428 -9.0757055 -0.62524247 0
-6.8175159 -6.6379418 -0.60469043 0
-4.3801093 -4.2652802 -0.58404839 0
-4.3701029 -4.270318 -0.58400726 0
-3.3361418 -3.2643349 -0.6058501 0
-18.695152 -18.724791 -0.30652031 0
-13.100639 -13.164799 -0.57194078 0
-8.9799814 -9.0455532 -0.60469782 0
-5.1740966 -5.2164564 -0.58194685 0
-3.6557388 -3.6798637 -0.57486737 0
-18.105436 -18.629253 -0.2958574 0
-8.7650547 -9.0354843 -0.59435046 0
-5.0791035 -5.231554 -0.57170689 0
-3.5957022 -3.7050498 -0.57464755 0
-17.625671 -18.55382 -0.2853224 0
-8.5451508 -9.0103979 -0.57905424 0
-4.9741073 -5.2416611 -0.56647074 0
-3.5356748 -3.7302189 -0.56943011 0
-17.295744 -18.623571 -0.27953395 0
-8.3302383 -8.9853382 -0.56877196 0
-4.8741007 -5.2617755 -0.56121051 0
-3.4706581 -3.7453842 -0.56424272 0
-16.820995 -18.528166 -0.26910111 0
-8.1353045 -8.9803047 -0.55845726 0
-4.7791085 -5.2768793 -0.55098009 0
-3.4106364 -3.7655573 -0.55904794 0
-16.546007 -18.653006 -0.26823208 0
-7.9204016 -8.940259 -0.54824138 0
-4.6791129 -5.2820029 -0.54578364 0
-3.3556049 -3.7907395 -0.55385065 0
-16.211071 -18.692808 -0.2626116 0
-7.7204733 -8.9152279 -0.53301728 0
-4.5791039 -5.2921343 -0.54057944 0
-3.2905712 -3.8059337 -0.5536778 0
-15.86614 -18.72761 -0.25700459 0
-7.5355082 -8.9102507 -0.52775192 0
-4.4890985 -5.3072586 -0.53037727 0
-3.2405307 -3.8361259 -0.5484792 0
-15.496253 -18.717388 -0.25152323 0
-7.3455753 -8.8802538 -0.5175705 0
-4.3940897 -5.3173957 -0.52518713 0
-3.180501 -3.8563073 -0.5433017 0
-15.171316 -18.757219 -0.24595013 0
-7.1556373 -8.8552589 -0.50737536 0
-4.2990861 -5.322536 -0.52001727 0
-3.1254678 -3.8715131 -0.54315197 0
-2.5036166 -3.1058547 0.9402144 0
-14.811365 -18.832058 -0.24023154 0
-14.756371 -18.847038 -0.24011263 0
-2.4634199 -3.1063964 0.84028971 0
-2.4535599 -3.1111166 0.93532479 0
-3.035439 -3.8917572 -0.53292823 0
-4.13907 -5.3428011 -0.50969803 0
-9.2876759 -12.122517 -0.41460964 0
-2.4430552 -3.1422467 0.65545344 0
-2.6807897 -3.4816432 -0.55376828 0
-4.0790682 -5.3478785 -0.5045886 0
-14.296416 -18.966858 -0.23414335 0
-4.0490608 -5.3529515 -0.5045265 0
-14.191426 -18.99683 -0.23392108 0
-2.9453938 -3.9170732 -0.52769077 0
-6.5208325 -8.7853622 -0.47171655 0
-2.3729773 -3.1576011 0.65063143 0
-2.6107442 -3.5069301 -0.54856038 0
-3.9590521 -5.3631034 -0.49935767 0
-13.906457 -19.066738 -0.23335359 0
-3.9040511 -5.3681879 -0.49425945 0
-8.5830336 -11.917309 -0.38435909 0
-2.5507126 -3.522176 -0.54340708 0
-3.8490543 -5.3682742 -0.48917928 0
-3.8140514 -5.3683438 -0.48912892 0
-2.5106862 -3.5323513 -0.54330623 0
-8.27318 -11.832252 -0.37424484 0
-3.1798043 -4.5379434 -0.50095177 0
-3.7240427 -5.3785 -0.48396692 0
-3.1247916 -4.5480843 -0.4958367 0
-12.402109 -18.841042 -0.20734188 0
-7.6534781 -11.667184 -0.34903196 0
-11.937446 -18.59078 -0.19761091 0
-5.5062056 -8.5856934 -0.42107263 0
-3.4590192 -5.404036 -0.46852478 0
-2.5801921 -4.033432 -0.51173639 0
-11.547689 -18.440598 -0.18766582 0
-5.3512526 -8.5607834 -0.41597041 0
-3.3690283 -5.3941989 -0.46343961 0
-2.5052028 -4.0185981 -0.50167704 0
-2.240535 -3.6084821 -0.52263057 0
-6.9638367 -11.442176 -0.32397082 0
-3.988023 -6.5699072 -0.43052629 0
-2.7897086 -4.5990338 -0.47520432 0
-2.1805215 -3.6086826 -0.51754189 0
-6.7489352 -11.382207 -0.31893036 0
-3.8880317 -6.5700603 -0.42541006 0
-3.1890132 -5.4095831 -0.45316538 0
-2.3801608 -4.0390444 -0.49143746 0
-10.263587 -17.790039 -0.16336992 0
-4.8714299 -8.4610729 -0.39075223 0
-3.1090131 -5.4097595 -0.44806919 0
-2.31515 -4.0392394 -0.48634908 0
-9.8788652 -17.584887 -0.1536262 0
-4.7464485 -8.4661989 -0.385609 0
-3.0240171 -5.404933 -0.44298396 0
-2.2601354 -4.044445 -0.48126063 0
-9.4941607 -17.35474 -0.14396542 0
-4.5815387 -8.3962765 -0.37565246 0
-2.949008 -5.4151168 -0.43786708 0
-2.2001131 -4.0496626 -0.48116663 0
-9.1094656 -17.109598 -0.13435417 0
-4.441586 -8.366395 -0.37060556 0
-2.8690116 -5.4102988 -0.43279323 0
-2.1500895 -4.0648756 -0.47605678 0
-10.59236 -20.459633 0.32402399 0
-8.6398544 -16.77944 -0.12492573 0
-5.6195545 -10.962396 -0.27411708 0
-4.2466583 -8.3215561 -0.36055532 0
-3.3081393 -6.5009236 -0.39500043 0
-2.739006 -5.4105988 -0.42765084 0
-2.3296452 -4.6153607 -0.44458982 0
-2.0450602 -4.0702586 -0.47091207 0
-1.8403494 -3.6752229 -0.49687132 0
-10.287087 -21.034815 0.32585597 0
-5.2647638 -10.807502 -0.25927356 0
-4.0167346 -8.2767973 -0.35048613 0
-3.1381576 -6.4962258 -0.38485178 0
-2.6040015 -5.4159379 -0.41749719 0
-2.589 -5.4159789 -0.41748223 0
-2.5690107 -5.4010162 -0.4175072 0
-2.5639925 -5.4210658 -0.41744378 0
-3.0381808 -6.4763932 -0.37981835 0
-3.8317931 -8.2369919 -0.34544477 0
-3.8068066 -8.232008 -0.34043899 0
-2.9781888 -6.4665051 -0.37979314 0
-2.4889913 -5.4212589 -0.41237119 0
-1.8749923 -4.1009607 -0.46062508 0
-1.6802806 -3.6959367 -0.48661479 0
-9.4422607 -21.239843 0.3269453 0
-6.9262023 -15.664122 -0.086866379 0
-4.6451082 -10.547795 -0.23955342 0
-3.5818872 -8.1772671 -0.33042189 0
-2.8132095 -6.4568205 -0.36968008 0
-2.3489957 -5.4066157 -0.40728435 0
-2.0095584 -4.6514797 -0.43414757 0
-1.7699515 -4.1164083 -0.45546779 0
-1.5852275 -3.7114103 -0.48646137 0
-8.8225689 -21.11981 0.32694373 0
-6.3366804 -15.254095 -0.072653055 0
-4.3152599 -10.448017 -0.22961375 0
-3.3419647 -8.127573 -0.32039055 0
-2.6282413 -6.4321809 -0.35960278 0
-2.198992 -5.4070096 -0.3971515 0
-1.8895293 -4.6619167 -0.42900524 0
-1.6649005 -4.1368737 -0.45530185 0
-1.4901956 -3.7168555 -0.47634414 0
-8.1829348 -20.919781 0.32670403 0
-5.7871137 -14.884118 -0.058371991 0
-3.9904268 -10.323254 -0.21976534 0
-3.1020513 -8.0628872 -0.31041291 0
-2.4532616 -6.41257 -0.35453114 0
-2.0589819 -5.4074311 -0.39203915 0
-1.7645144 -4.6623387 -0.41889343 0
-1.5548855 -4.1273108 -0.44522604 0
-1.3951429 -3.7323356 -0.47620246 0
-7.6531096 -20.964855 0.3270348 0
-5.2775021 -14.549205 -0.049039483 0
-3.6756067 -10.183496 -0.20498189 0
-2.8671355 -7.9982147 -0.30044946 0
-2.2832732 -6.4029698 -0.34944394 0
-1.9089961 -5.3828363 -0.38199547 0
-1.639504 -4.6477809 -0.41383234 0
-1.4548315 -4.1527886 -0.44506463 0
-1.3001044 -3.7378039 -0.47109625 0
-7.0933633 -20.904924 0.32706302 0
-4.8078532 -14.249336 -0.039655268 0
-3.3657792 -10.038764 -0.19522503 0
-2.6472037 -7.9435754 -0.29548261 0
-2.1132977 -6.3833599 -0.33939406 0
-1.773975 -5.3882856 -0.3818886 0
-1.52946 -4.6782374 -0.40866402 0
-1.349795 -4.1632509 -0.43994775 0
-1.2050755 -3.7382607 -0.46100989 0
-6.6034927 -21.015062 0.32747382 0
-4.358191 -13.954498 -0.030284345 0
-3.075932 -9.9140596 -0.18544063 0
-3.0409548 -9.8890877 -0.18549135 0
-4.2232938 -13.864544 -0.025477618 0
-6.3585553 -21.075138 0.32768047 0
-12.834266 -42.896751 1.4226009 0
-12.754239 -43.016724 1.4279261 0
-6.2185974 -21.105188 0.32777551 0
-4.0134358 -13.739658 -0.025746882 0
-2.8460548 -9.8043127 -0.18064851 0
-2.2523489 -7.8242106 -0.2756224 0
-1.8183222 -6.359107 -0.32930437 0
-1.5289553 -5.3890758 -0.37173817 0
-1.3244052 -4.6940756 -0.4034836 0
-1.1697235 -4.1841097 -0.43475786 0
-1.0449836 -3.7641506 -0.46080872 0
-5.7237291 -21.22035 0.32814613 0
-3.6087356 -13.474878 -0.016347259 0
-2.5711925 -9.6896353 -0.17086366 0
-2.0424314 -7.7395992 -0.27077189 0
-1.6533483 -6.3245316 -0.32432345 0
-1.3989434 -5.3895273 -0.36667159 0
-1.209383 -4.69454 -0.39841476 0
-1.0746715 -4.2096033 -0.43462756 0
-0.9599188 -3.7996521 -0.46065018 0
-5.2388678 -21.330534 0.32845813 0
-3.2190123 -13.225123 -0.0069279373 0
-2.3113124 -9.58498 -0.16107863 0
-1.837491 -7.6799855 -0.26086804 0
-1.4933692 -6.2899528 -0.31436041 0
-1.2639272 -5.3799825 -0.36164066 0
-1.0893526 -4.6900067 -0.39336708 0
-0.96963352 -4.205081 -0.4295831 0
-0.86987448 -3.795141 -0.45561114 0
-4.8803196 -21.991478 1.9100678 0
-4.8303251 -21.991518 1.9050584 0
-0.90461737 -4.1903634 -0.42459139 0
-1.1439067 -5.3653965 -0.3566418 0
-1.323355 -6.2704453 -0.30937311 0
-1.3033518 -6.2704887 -0.30936459 0
-1.103898 -5.3605394 -0.35664293 0
-0.95430762 -4.6805811 -0.38834313 0
-0.84458244 -4.195663 -0.42455152 0
-0.83957064 -4.2057157 -0.42452559 0
-0.82956535 -4.2057657 -0.42452142 0
-0.81456661 -4.1958127 -0.42453906 0
-0.80457002 -4.1908493 -0.41954854 0
-0.79456151 -4.1958995 -0.41953096 0
-0.78455609 -4.1959505 -0.41952714 0
-0.77455401 -4.1910009 -0.41953668 0
-0.76954556 -4.196054 -0.41952464 0
-0.75953704 -4.2011042 -0.41950735 0
-0.74454147 -4.186151 -0.41953841 0
-0.73952329 -4.2062044 -0.41948631 0
-0.72952443 -4.1962547 -0.41950938 0
-0.71950424 -4.211318 -0.42446557 0
-0.69954473 -4.1563358 -0.41459826 0
-0.69950861 -4.1964054 -0.41949847 0
-0.68950331 -4.196456 -0.4194949 0
-0.67948008 -4.2165194 -0.42443821 0
-0.66451061 -4.1765413 -0.41453591 0
-0.6495263 -4.1515756 -0.40959349 0
-0.64449364 -4.1866422 -0.41450253 0
-0.63947678 -4.1967092 -0.41947791 0
-0.62947148 -4.1967597 -0.41947463 0
-0.61947459 -4.1917968 -0.41448453 0
-0.60946929 -4.1918473 -0.41448131 0
-0.59944946 -4.2069111 -0.41943869 0
-0.58448565 -4.1569328 -0.40956172 0
-0.57945961 -4.1819992 -0.41449812 0
-0.56944805 -4.19205 -0.41446885 0
-0.55945212 -4.1771007 -0.41450498 0
-0.54944354 -4.1821523 -0.41448912 0
-0.53943211 -4.192203 -0.41446009 0
-0.52942985 -4.1872535 -0.41447017 0
-0.51942146 -4.1923046 -0.41445431 0
-0.50941926 -4.187355 -0.4144645 0
-0.4994109 -4.1924062 -0.41444877 0
-2.6337748 -23.680586 0.88862765 0
-1.9219439 -17.581659 0.31856358 0
-1.2751133 -11.91706 0.024594665 0
-1.2451255 -11.902099 0.024551392 0
-0.91676748 -8.962327 -0.12269175 0
-0.89678234 -8.9373732 -0.12276027 0
-0.71767586 -7.2975698 -0.22179767 0
-0.58833009 -6.1077056 -0.28472468 0
-0.56833279 -6.0977516 -0.28474477 0
-0.47878525 -5.2628717 -0.33179525 0
-0.46878406 -5.2579231 -0.33180955 0
-0.40411043 -4.6380453 -0.37333027 0
-0.39410853 -4.6330962 -0.37334242 0
-0.34434575 -4.1682134 -0.40947899 0
-0.33434829 -4.1632519 -0.40448955 0
-0.32433507 -4.1683159 -0.40947482 0
-0.31433743 -4.1633558 -0.40448555 0
-0.3043184 -4.1784201 -0.40944579 0
-0.29434922 -4.1334462 -0.39955696 0
-0.28432137 -4.1635098 -0.40447971 0
-0.27431601 -4.1635613 -0.4044778 0
-0.26431355 -4.1586132 -0.40448847 0
-0.25431111 -4.1536646 -0.4044992 0
-0.24430867 -4.148716 -0.40450987 0
-0.23429748 -4.1587672 -0.40448323 0
-0.22429501 -4.1538191 -0.40449396 0
-0.21928965 -4.1538734 -0.40449706 0
-0.2042948 -4.1439095 -0.39951554 0
-0.19927302 -4.1639771 -0.40446934 0
-0.18928677 -4.1390171 -0.39952961 0
-0.17928711 -4.1290684 -0.39955273 0
-0.16928743 -4.1191206 -0.3995758 0
-0.15927629 -4.1291718 -0.39954969 0
-0.14927372 -4.1242237 -0.39956054 0
-0.13926831 -4.1242752 -0.39955911 0
-0.12926005 -4.1293273 -0.39954546 0
-0.11925467 -4.1293788 -0.39954415 0
-0.10925208 -4.1244302 -0.39955506 0
-0.099265411 -4.0994706 -0.39461473 0
-0.094232805 -4.1395373 -0.39952073 0
-0.084232904 -4.12959 -0.39954409 0
-0.074216276 -4.149642 -0.3994945 0
-0.064235061 -4.1146822 -0.39457825 0
-0.054243587 -4.0897341 -0.39463755 0
-0.044224184 -4.1147861 -0.3945761 0
-0.034211408 -4.1198502 -0.39956304 0
-0.024213303 -4.1148901 -0.3945742 0
-0.014200563 -4.1199541 -0.39956126 0
-0.0092024188 -4.1149969 -0.39457694 0
0.0008030216 -4.1150489 -0.3945761 0
0.010802961 -4.1051011 -0.39459923 0
0.020813903 -4.1151533 -0.39457461 0
0.030819457 -4.1152067 -0.39457408 0
0.040822167 -4.1102591 -0.39458534 0
0.056030907 -4.5402236 -0.35855892 0
0.086706802 -5.9200478 -0.26526967 0
0.096710362 -5.9201007 -0.26527599 0
0.11171392 -5.9201508 -0.26527795 0
0.12671475 -5.9152007 -0.26529166 0
0.14171562 -5.9102511 -0.26530555 0
0.1517165 -5.905304 -0.26532379 0
0.16672008 -5.905354 -0.26532593 0
0.18172099 -5.9004045 -0.26533988 0
0.19171922 -5.8904576 -0.26536992 0
0.20672555 -5.8955088 -0.2653608 0
0.22172913 -5.8955593 -0.26536319 0
0.23172045 -5.8806009 -0.26040491 0
0.24673103 -5.885663 -0.26539567 0
0.26172501 -5.8757014 -0.26042143 0
0.27673823 -5.8857641 -0.26540074 0
0.28673229 -5.8758054 -0.26043084 0
0.30173329 -5.8708563 -0.26044503 0
0.31173167 -5.8609095 -0.26047507 0
0.3267301 -5.8509603 -0.26050088 0
0.34173375 -5.8510113 -0.26050362 0
0.35174 -5.8560638 -0.26049915 0
0.36673594 -5.841116 -0.26053676 0
0.37673703 -5.8361692 -0.2605553 0
0.39174587 -5.8462205 -0.26053539 0
0.40674436 -5.8362713 -0.2605612 0
0.42174804 -5.8363223 -0.2605643 0
0.43174657 -5.8263755 -0.26059422 0
0.44675022 -5.8264265 -0.26059738 0
0.46175393 -5.8264775 -0.2606006 0
0.47174582 -5.8115196 -0.25564191 0
0.48675621 -5.8165822 -0.26063392 0
0.49674818 -5.8016248 -0.25567517 0
0.51175445 -5.8066759 -0.2556673 0
0.5217557 -5.8017306 -0.25568637 0
0.5367595 -5.8017821 -0.25568983 0
0.55176067 -5.796833 -0.25570461 0
0.56176186 -5.7918868 -0.25572339 0
0.57676309 -5.7869387 -0.25573817 0
0.5917694 -5.7919893 -0.25573072 0
0.60177064 -5.7870436 -0.25574961 0
0.61676693 -5.7720947 -0.25578675 0
0.62677068 -5.7721486 -0.2557945 0
0.64177442 -5.7722001 -0.25579837 0
0.65177077 -5.7572546 -0.25583938 0
0.66677952 -5.7673063 -0.25582126 0
0.68177599 -5.7523589 -0.25585863 0
0.69177973 -5.7524128 -0.25586662 0
0.70678109 -5.7474647 -0.2558817 0
0.71678007 -5.7375183 -0.25591156 0
0.73178869 -5.7475705 -0.2558938 0
0.74178129 -5.7326136 -0.25093475 0
0.75678277 -5.7276669 -0.25095019 0
0.76678658 -5.7277212 -0.25095835 0
0.78178805 -5.7227731 -0.25097361 0
0.79678708 -5.7128243 -0.25099966 0
0.80679333 -5.7178788 -0.2509971 0
0.82179475 -5.7129307 -0.25101241 0
0.8317939 -5.7029867 -0.25104269 0
0.84680015 -5.7080383 -0.25103649 0
0.86180401 -5.7080908 -0.25104114 0
0.8717984 -5.6881452 -0.25109252 0
0.88180465 -5.6931996 -0.25109026 0
0.89680845 -5.6932521 -0.25109503 0
0.90680534 -5.6783066 -0.25113562 0
0.9218092 -5.678359 -0.25114045 0
0.93681312 -5.678411 -0.25114539 0
1.1072022 -6.6182404 -0.17903984 0
1.3126692 -7.7779899 -0.076450109 0
1.3326685 -7.7730408 -0.076470733 0
1.3526679 -7.7680926 -0.076491416 0
1.7335235 -9.8376875 0.063125715 0
1.7535148 -9.8277292 0.068085805 0
1.7735075 -9.8127823 0.068035409 0
1.7934979 -9.7928343 0.067974538 0
1.8184954 -9.7878838 0.067948759 0
1.8334837 -9.7629395 0.067873895 0
1.8534788 -9.7529917 0.067834035 0
1.878474 -9.743041 0.067797765 0
1.8934624 -9.7180967 0.067723125 0
1.9134531 -9.6981487 0.067662552 0
1.9384508 -9.6932001 0.067636654 0
2.6648633 -13.217455 0.30540079 0
2.6948504 -13.197504 0.30533254 0
11.410802 -55.335449 4.3531952 0
0.8312031 -3.9398465 -0.380101 0
0.92636782 -4.3547907 -0.34419248 0
1.0515811 -4.8897109 -0.30302081 0
1.2068446 -5.5645876 -0.24654678 0
1.4222058 -6.489408 -0.17452675 0
1.6876341 -7.6191459 -0.072062671 0
2.1283708 -9.5237255 0.072087884 0
2.9046717 -12.867985 0.30437383 0
4.0014176 -17.56171 0.73458409 0
12.258689 -53.338642 5.502481 0
0.90623927 -3.9053431 -0.38020459 0
1.1366026 -4.8601389 -0.29813066 0
1.3068562 -5.5250125 -0.24168965 0
1.7976198 -7.5545259 -0.072294474 0
3.049582 -12.708306 0.30386513 0
4.2713981 -17.631998 0.73449957 0
12.989213 -53.116467 4.2162027 0
1.0714279 -4.3106141 -0.34435192 0
1.216633 -4.8455305 -0.30320141 0
1.3868701 -5.4903975 -0.24182037 0
1.6322079 -6.3852234 -0.17489946 0
1.9276034 -7.4849491 -0.06754756 0
2.4132679 -9.2795382 0.071292356 0
3.264452 -12.468794 0.30310738 0
3.2894394 -12.443848 0.30302766 0
3.3194346 -12.428898 0.30297062 0
4.7613449 -17.697517 0.73919052 0
17.222588 -63.504147 5.0168304 0
1.1213775 -3.8666642 -0.38037202 0
1.1263766 -3.8467207 -0.38041714 0
1.2615325 -4.2666564 -0.34453455 0
1.2565162 -4.2167072 -0.33964518 0
1.2715315 -4.2367601 -0.33960882 0
1.4417297 -4.7716727 -0.2984921 0
1.6419499 -5.3865452 -0.24220899 0
1.6519521 -5.3766007 -0.24223843 0
1.9372663 -6.251411 -0.17041731 0
1.95227 -6.2464647 -0.17043802 0
2.2926338 -7.2961974 -0.068263948 0
2.8282046 -8.9307775 0.075124308 0
3.7892478 -11.880037 0.30123323 0
5.2357602 -16.298765 0.71037441 0
6.8222737 -21.097002 1.3552732 0
1.2514687 -3.817492 -0.38053307 0
1.3866018 -4.197422 -0.33975163 0
1.5667876 -4.7123337 -0.29869482 0
1.7819959 -5.3171954 -0.23745432 0
2.0873024 -6.1820135 -0.17068288 0
2.4526503 -7.2167339 -0.063568622 0
3.0131969 -8.8163147 0.079696536 0
3.9891522 -11.585593 0.30035135 0
5.4555416 -15.73937 0.69381982 0
15.094568 -43.310455 3.5750811 0
1.331524 -3.7879899 -0.38062903 0
1.6618385 -4.7027721 -0.29876801 0
2.1823213 -6.1323895 -0.16586223 0
2.5576599 -7.147121 -0.063811392 0
3.1431949 -8.7366991 0.079399496 0
4.1341009 -11.410984 0.29980266 0
5.6054044 -15.384788 0.68781626 0
7.1916699 -19.598162 1.291294 0
1.3915635 -3.7434275 -0.37575403 0
1.5466974 -4.1283636 -0.33998129 0
1.7418706 -4.6332664 -0.29397348 0
1.9870772 -5.2431331 -0.23775348 0
2.3123577 -6.0729442 -0.16610035 0
2.7076802 -7.0626755 -0.064129055 0
3.3231897 -8.6122522 0.078955203 0
5.8252697 -15.025313 0.68173635 0
18.740829 -48.059738 3.9825428 0
1.4616125 -3.7138724 -0.37584582 0
1.8119042 -4.593657 -0.29410192 0
2.3923764 -6.0282764 -0.16625756 0
3.4181924 -8.5625277 0.07875967 0
5.9652143 -14.875594 0.68124306 0
9.8815842 -24.547213 4.6803246 0
1.6467539 -4.0540271 -0.33519563 0
2.8476982 -6.9831729 -0.064416498 0
7.5912709 -18.574209 1.2484146 0
2.1371362 -5.1738577 -0.23800984 0
4.5439806 -10.957109 0.29834509 0
10.106843 -24.293688 4.0294747 0
1.9119557 -4.564157 -0.2942237 0
4.5789657 -10.902225 0.29818213 0
10.231831 -24.268808 4.0292888 0
1.9319624 -4.5442686 -0.29427508 0
6.2001109 -14.581119 0.67530984 0
2.5524178 -5.9439445 -0.16656268 0
7.9807358 -18.562994 2.2029757 0
1.7518263 -4.0445905 -0.34027049 0
6.2750788 -14.481301 0.66999751 0
2.5924284 -5.9241118 -0.16663653 0
10.577441 -24.151293 2.7886374 0
10.840876 -24.650642 6.0546336 0
4.7389264 -10.73268 0.29763219 0
2.6324432 -5.9142809 -0.16669381 0
10.416868 -23.360703 3.3118978 0
1.8018534 -4.004921 -0.33538124 0
6.430017 -14.301648 0.66941297 0
10.776028 -23.902357 5.2679024 0
3.1027374 -6.8441162 -0.059943527 0
10.866695 -23.939592 4.0227995 0
2.0470214 -4.4749432 -0.29449847 0
7.960844 -17.410414 1.2052389 0
1.6717726 -3.6352713 -0.37611452 0
3.8231945 -8.2888174 0.077770278 0
11.061359 -23.933716 4.6575756 0
2.7124567 -5.8396678 -0.1619201 0
11.162342 -23.986868 2.7926073 0
1.8769093 -4.0103168 -0.34041455 0
3.8731916 -8.2489796 0.082634315 0
10.961502 -23.295195 3.9411488 0
1.8869108 -3.9804242 -0.33548233 0
3.9182034 -8.2490969 0.077593908 0
11.341632 -23.805082 4.0319743 0
2.1370711 -4.45539 -0.29459593 0
6.6999078 -13.962301 0.66333163 0
2.8024826 -5.7900634 -0.16209874 0
11.697347 -24.12718 2.8273616 0
1.7568365 -3.6008332 -0.37622723 0
3.9981995 -8.1793756 0.082360297 0
11.871723 -24.215181 4.1173792 0
2.1870978 -4.4306712 -0.29468074 0
6.8398714 -13.842589 0.66291159 0
2.5022852 -5.0155926 -0.23860422 0
5.1638494 -10.328885 0.29628477 0
11.526685 -22.976913 3.3247781 0
1.8068737 -3.5761704 -0.3763018 0
2.5272932 -4.9807649 -0.2386981 0
4.1332135 -8.1247683 0.082116827 0
6.9998279 -13.697942 0.66240382 0
11.731638 -22.862173 3.3242819 0
1.8569102 -3.5863988 -0.3813009 0
2.2721415 -4.3711815 -0.29485968 0
2.9775362 -5.7107954 -0.16240442 0
4.2232165 -8.0650549 0.08190605 0
7.1297908 -13.563243 0.65696061 0
11.986581 -22.712505 3.3186541 0
1.8819333 -3.5416865 -0.38140962 0
2.0770345 -3.8866093 -0.33578399 0
2.3271723 -4.3365226 -0.2949709 0
2.6573474 -4.9213858 -0.23891315 0
3.0625618 -5.6561937 -0.1625917 0
3.5728211 -6.5659294 -0.060955673 0
4.3582234 -7.9705143 0.081568152 0
7.3697529 -13.418705 0.65638101 0
8.7303114 -15.817568 1.1506622 0
1.966996 -3.5221925 -0.3814896 0
2.1570911 -3.8471277 -0.34091237 0
2.4222238 -4.2970314 -0.29511222 0
2.7523892 -4.8618999 -0.23911092 0
3.1825991 -5.596705 -0.16281036 0
3.7078485 -6.4914432 -0.061230332 0
4.5132313 -7.861032 0.081188187 0
5.6687751 -9.8354025 0.29466659 0
7.6346893 -13.179298 0.65555727 0
9.0602369 -15.568179 1.1447337 0
2.0470569 -3.4727602 -0.38162813 0
2.2471516 -3.8026958 -0.34105495 0
2.5272832 -4.2575989 -0.29526296 0
2.86744 -4.8074684 -0.23930755 0
3.3126423 -5.5322762 -0.16305158 0
3.8578796 -6.4070163 -0.061536878 0
4.6882463 -7.7516098 0.080787808 0
5.8687568 -9.6609917 0.29408363 0
9.1000519 -14.928843 1.1181849 0
2.1321223 -3.4532747 -0.38670936 0
2.3322084 -3.7682059 -0.34117302 0
2.6073282 -4.1931157 -0.29544762 0
2.9624817 -4.7429852 -0.23951057 0
4.8082552 -7.667017 0.080496162 0
6.0237546 -9.5664015 0.2937254 0
8.0896015 -12.800324 0.64921808 0
9.2649603 -14.594377 1.1072342 0
2.1821654 -3.3987284 -0.38184693 0
2.6973798 -4.1885157 -0.30051288 0
3.5077071 -5.4231434 -0.16843015 0
4.9282694 -7.597424 0.080228403 0
8.2645788 -12.690681 0.64879227 0
37.91135 -57.990425 5.2199388 0
2.2221968 -3.3740132 -0.38191488 0
2.4472859 -3.6989496 -0.3413749 0
2.7273962 -4.1038618 -0.29570332 0
3.107548 -4.6637311 -0.23977807 0
3.5927348 -5.3635488 -0.16862068 0
4.1729498 -6.2082906 -0.06223017 0
5.0532765 -7.4828968 0.079869121 0
6.3237419 -9.3272924 0.29290044 0
8.5495548 -12.556209 0.6532051 0
9.8949337 -14.465239 1.1213104 0
2.3072667 -3.339591 -0.38702765 0
2.5373507 -3.6545281 -0.34651592 0
2.8224537 -4.0494366 -0.29587677 0
3.2125964 -4.5893092 -0.24000385 0
4.3029795 -6.1238151 -0.062514901 0
6.4937401 -9.2077675 0.29247972 0
9.8648014 -13.940785 1.0951214 0
3.262619 -4.5695381 -0.24007693 0
6.5537395 -9.1629477 0.29232177 0
9.404582 -13.101185 1.0536299 0
2.3773232 -3.2901075 -0.38715652 0
3.7878027 -5.234477 -0.16904119 0
6.6137381 -9.1131277 0.29215735 0
2.9575269 -4.0400085 -0.30097494 0
6.6537385 -9.0832472 0.29205248 0
11.799505 -16.067526 3.5831244 0
2.9525304 -4.0001307 -0.30105689 0
8.9594679 -12.117271 0.64680731 0
11.574244 -15.617168 3.9673717 0
3.8628287 -5.1848269 -0.16919878 0
12.29495 -16.488785 2.7086232 0
12.254217 -16.376244 4.658463 0
5.4383249 -7.2441912 0.07901518 0
11.609388 -15.443127 3.4818606 0
3.0025582 -3.96542 -0.30115226 0
9.0794439 -11.987584 0.64640236 0
12.169338 -16.032255 4.0977511 0
3.4176919 -4.4753485 -0.24037287 0
9.1144314 -11.922711 0.64621985 0
12.184318 -15.897441 4.0824289 0
3.4276993 -4.4504676 -0.24043378 0
11.545082 -14.9765 1.1858704 0
2.4974222 -3.2209694 -0.38735005 0
5.5533385 -7.1546073 0.078726247 0
12.784607 -16.443071 3.728025 0
3.4777212 -4.4456439 -0.24547115 0
11.650062 -14.891692 1.1855824 0
2.5224438 -3.2061491 -0.39238963 0
5.5933414 -7.1047897 0.078584805 0
3.51774 -4.4358172 -0.24551895 0
11.034822 -13.917147 1.1289344 0
2.5524662 -3.2013197 -0.3924146 0
7.0387459 -8.8243313 0.29113659 0
4.7230868 -5.8804593 -0.068358272 0
12.334566 -15.354599 3.0709603 0
3.5577607 -4.4060507 -0.2456077 0
13.050056 -16.160522 2.2421234 0
2.8275554 -3.4764295 -0.3470206 0
12.060058 -14.857159 1.1951034 0
2.5824952 -3.1616104 -0.39250252 0
7.1487489 -8.7496328 0.29088235 0
12.78431 -15.623446 4.1062169 0
5.758368 -7.0153222 0.078255534 0
4.8081102 -5.8258133 -0.068541884 0
13.089523 -15.854146 3.6813664 0
3.6077871 -4.3414054 -0.24576816 0
13.189844 -15.885381 2.7163579 0
13.469096 -16.167168 5.2917929 0
12.164992 -14.567588 1.1843513 0
12.92914 -15.443255 4.5856614 0
7.2837553 -8.6699953 0.29059082 0
4.1979527 -4.9664073 -0.16989189 0
13.054757 -15.435799 2.6654625 0
3.2477093 -3.8218756 -0.3065863 0
9.4192753 -11.069241 0.63401556 0
12.89425 -15.119258 4.0499582 0
4.237968 -4.9465828 -0.16996172 0
37.241348 -43.412937 4.3410206 0
13.254157 -15.398658 4.6202536 0
5.9433956 -6.8809834 0.07781902 0
13.644684 -15.770375 3.2356589 0
3.7178433 -4.2769885 -0.24597111 0
37.471222 -43.103203 4.3350415 0
13.429168 -15.393848 4.645072 0
5.998404 -6.8461633 0.077703804 0
13.824687 -15.755564 3.2504587 0
3.3177547 -3.7623439 -0.30674222 0
7.5187664 -8.5106668 0.29004037 0
3.34777 -3.7624576 -0.30675974 0
6.0584121 -6.7864056 0.077532172 0
14.219873 -15.911326 2.7954392 0
2.7576408 -3.0678289 -0.39776203 0
4.3680196 -4.8472328 -0.17025328 0
9.5592022 -10.58512 0.62281585 0
9.5641937 -10.540189 0.622715 0
9.5791893 -10.505254 0.62262869 0
9.5891848 -10.470321 0.62254119 0
9.6041794 -10.435388 0.62245536 0
9.6091747 -10.400457 0.62236583 0
9.6191692 -10.360524 0.62227345 0
9.6291637 -10.320591 0.6221813 0
9.6441612 -10.290658 0.62210202 0
9.6541567 -10.25573 0.61701596 0
9.6591511 -10.215798 0.61692709 0
10.074149 -10.605372 0.97742665 0
2.8877473 -2.9987025 -0.40293995 0
2.8927519 -2.9837611 -0.4029626 0
2.9027603 -2.9838188 -0.40296742 0
2.9077675 -2.9788775 -0.40297905 0
2.9227772 -2.9789405 -0.4079828 0
2.9277844 -2.9739995 -0.40799436 0
2.9327879 -2.9590528 -0.40301672 0
2.9477987 -2.9641149 -0.40801486 0
3.2228551 -3.2290642 -0.3626686 0
3.2378633 -3.2291212 -0.36267355 0
3.2378681 -3.2141817 -0.36269829 0
3.2528763 -3.2142386 -0.36270323 0
3.2578821 -3.204298 -0.36272123 0
3.6379576 -3.5642214 -0.31225696 0
4.1280546 -4.0291162 -0.25665906 0
6.5584984 -6.3833032 0.071384743 0
38.75436 -37.632149 4.1067567 0
3.0228627 -2.9146392 -0.40811524 0
4.1580706 -3.9992957 -0.25672153 0
6.6135073 -6.3434877 0.071282431 0
39.129272 -37.482384 4.1161489 0
3.3329377 -3.1597662 -0.36281869 0
4.848207 -4.5793171 -0.18101516 0
8.4138193 -7.9331436 0.28823009 0
39.74387 -37.396378 5.4204845 0
3.0829148 -2.8800511 -0.41318724 0
3.7430284 -3.4848754 -0.31742808 0
4.8632216 -4.514564 -0.18113974 0
8.5038252 -7.873394 0.28806075 0
39.67366 -36.65691 5.3640056 0
3.102941 -2.8452871 -0.41324612 0
3.7930574 -3.4701102 -0.31747255 0
5.7133708 -5.2095342 -0.075318009 0
9.9840202 -9.0830507 0.60446268 0
40.353279 -36.610939 6.6883998 0
3.4380157 -3.0954156 -0.36795238 0
4.9632635 -4.4649868 -0.18627426 0
8.6688395 -7.7788343 0.28777787 0
40.958836 -36.633598 4.1680217 0
3.4730456 -3.0756552 -0.37299737 0
3.483053 -3.070714 -0.37300822 0
3.4880593 -3.0607736 -0.37302503 0
3.5030675 -3.0608311 -0.37302998 0
3.5130749 -3.0558896 -0.37304083 0
3.523082 -3.0509484 -0.37305161 0
3.5330884 -3.0410068 -0.37306705 0
3.5280926 -3.0210681 -0.37309507 0
3.5431011 -3.0211258 -0.37309995 0
3.558109 -3.0211835 -0.3731049 0
3.5581155 -3.0112441 -0.37312236 0
3.573123 -3.0063016 -0.3731319 0
3.5831313 -3.0013652 -0.37814251 0
3.5881376 -2.9914248 -0.37815872 0
3.598145 -2.9864833 -0.37816927 0
3.6131525 -2.9815412 -0.37817869 0
3.6131589 -2.9716017 -0.37819579 0
3.6231666 -2.9666619 -0.3782064 0
4.0482273 -3.3015983 -0.32782701 0
4.0532331 -3.2916586 -0.32784465 0
4.0682416 -3.2867212 -0.33285573 0
4.0732455 -3.2717774 -0.32787761 0
4.0882549 -3.2718401 -0.33288428 0
4.0932598 -3.2569005 -0.33290604 0
4.1082683 -3.256959 -0.33291265 0
4.1232758 -3.2520175 -0.33292362 0
4.1282821 -3.2420781 -0.33294091 0
4.1332884 -3.2321377 -0.33295807 0
4.1482954 -3.2271965 -0.33296892 0
4.1633029 -3.2222567 -0.33298001 0
4.1733103 -3.2173159 -0.33299181 0
4.1833167 -3.2073755 -0.33300778 0
4.193325 -3.2024391 -0.33801958 0
4.1983294 -3.1874955 -0.33304062 0
4.2083378 -3.182559 -0.3380523 0
4.2133446 -3.1726196 -0.33806905 0
4.7784114 -3.5825348 -0.27763453 0
5.4684887 -4.0824132 -0.19710717 0
6.3335824 -4.7122402 -0.086446613 0
10.578989 -7.841043 0.59186208 0
10.803773 -7.9800696 1.8569819 0
4.2683792 -3.137917 -0.33813402 0
6.3835983 -4.6774259 -0.086518615 0
7.6437268 -5.5771608 0.064413086 0
9.7389412 -7.0817051 0.28596777 0
10.643992 -7.7013865 0.59159136 0
10.863781 -7.8354445 1.8517028 0
3.2383103 -2.3184955 -0.4690111 0
3.5433469 -2.5284786 -0.43379715 0
3.5433533 -2.5135403 -0.43381509 0
3.5533619 -2.5135992 -0.4338195 0
3.563369 -2.5036578 -0.43383148 0
3.5683761 -2.4937174 -0.4338443 0
3.5833857 -2.4937792 -0.43884781 0
3.5783908 -2.4788363 -0.43386599 0
3.593401 -2.4788995 -0.43886963 0
3.6034088 -2.4739583 -0.43887767 0
3.6134167 -2.4690168 -0.43888566 0
3.6234238 -2.4590757 -0.43889734 0
3.623431 -2.449136 -0.43891069 0
3.6384399 -2.4491942 -0.43891409 0
4.0034766 -2.6791701 -0.39869121 0
4.4685225 -2.9841244 -0.34839991 0
5.0785794 -3.3740513 -0.28802666 0
5.788641 -3.8289468 -0.20259467 0
5.8336511 -3.8390069 -0.20759371 0
6.7237239 -4.4088578 -0.092058539 0
8.0938349 -5.283617 0.058762506 0
11.334056 -7.3628354 0.60071921 0
3.3834777 -2.1847439 -0.47918835 0
3.6985092 -2.379734 -0.44400683 0
4.5585818 -2.9246082 -0.35349843 0
6.7937517 -4.3441715 -0.092176437 0
11.259051 -7.1731343 0.59544504 0
3.4235117 -2.1699817 -0.48421088 0
4.0885653 -2.57989 -0.39883271 0
5.9337063 -3.7345631 -0.2077722 0
10.444031 -6.5536675 0.28480586 0
12.958852 -8.1067314 2.8012011 0
3.7585649 -2.3351517 -0.44906768 0
5.2436762 -3.2499044 -0.29323927 0
8.3088884 -5.1293159 0.058455184 0
13.128925 -8.0921764 2.4561031 0
13.353815 -8.1916399 3.2412026 0
4.6586552 -2.8402143 -0.35862634 0
10.554049 -6.4240689 0.28456369 0
3.5035872 -2.1205187 -0.49427292 0
4.6736693 -2.8203354 -0.35865399 0
10.589056 -6.3792024 0.28448293 0
3.4936001 -2.090637 -0.48930255 0
4.7036848 -2.8104548 -0.35867283 0
10.619061 -6.3293376 0.28439888 0
12.298783 -7.3124418 2.9802639 0
5.3487396 -3.1654565 -0.29837409 0
42.481003 -25.108206 3.7506104 0
3.8386524 -2.255811 -0.45416787 0
5.3737535 -3.1455781 -0.29840383 0
12.449158 -7.2741766 0.62012565 0
3.8636689 -2.2459288 -0.45418116 0
6.2138171 -3.6005507 -0.22302869 0
13.668976 -7.9130435 2.5056152 0
4.2587066 -2.4509742 -0.40901247 0
10.709082 -6.1498127 0.28410447 0
12.80383 -7.3379011 3.0651116 0
6.2288346 -3.5557377 -0.21809307 0
13.243911 -7.5531721 2.7902305 0
13.078745 -7.4275732 3.8501337 0
10.744091 -6.0750165 0.28398204 0
12.808841 -7.2231541 3.0549412 0
5.4638109 -3.0660713 -0.30352214 0
13.674042 -7.6637516 2.1152451 0
12.923803 -7.2180872 3.4348855 0
7.2389154 -4.0258675 -0.10275146 0
12.733906 -7.0687037 2.6797061 0
13.238771 -7.3129711 3.8699136 0
10.789106 -5.9403582 0.28377423 0
3.9387574 -2.1615896 -0.45927873 0
6.3388886 -3.4662354 -0.22323278 0
3.6037474 -1.9617094 -0.49444059 0
12.928679 -7.0329156 4.504612 0
13.218941 -7.1789308 2.7546959 0
12.993686 -7.027987 4.5245833 0
13.808966 -7.4588842 2.8648918 0
13.783708 -7.4178481 4.7748666 0
13.258949 -7.1240869 2.7596021 0
5.5688763 -2.9766254 -0.30865023 0
12.703977 -6.7844729 2.3093133 0
5.5838833 -2.9666862 -0.3086637 0
13.204046 -7.0096445 2.0294654 0
4.9538608 -2.6168549 -0.37394157 0
13.554202 -7.1502271 0.99955046 0
13.738779 -7.2284379 4.3496165 0
13.989085 -7.3446617 2.1296732 0
5.6189051 -2.9368703 -0.30870512 0
12.688992 -6.6297965 2.2991009 0
13.413688 -6.9833107 5.0043769 0
12.683902 -6.5944438 2.9790819 0
7.4589982 -3.8616905 -0.10801673 0
4.0388479 -2.0822489 -0.46436468 0
9.0740757 -4.6765003 0.047586203 0
4.4438739 -2.2822452 -0.42421678 0
10.889152 -5.5812521 0.28324983 0
12.718833 -6.509336 3.6689479 0
10.899155 -5.5563207 0.28321263 0
4.4638901 -2.2673655 -0.42423424 0
9.1490936 -4.6366973 0.042513743 0
4.0488801 -2.0424919 -0.46440348 0
7.5490322 -3.8020101 -0.11311355 0
3.7188754 -1.8676072 -0.50453484 0
13.253778 -6.6291957 4.5339451 0
13.134 -6.5601916 2.6988642 0
5.7239723 -2.8474271 -0.31382659 0
13.039042 -6.4754615 2.3287799 0
5.0589528 -2.4975898 -0.37908384 0
12.819235 -6.3213854 0.61364865 0
4.513938 -2.2177286 -0.42428932 0
9.2891283 -4.5470858 0.042365327 0
4.103931 -2.0028527 -0.46944502 0
6.6390352 -3.2275481 -0.23358116 0
3.7639265 -1.8229661 -0.50957358 0
5.7840099 -2.7927365 -0.318894 0
13.349075 -6.4408097 2.3686411 0
5.0989914 -2.4478946 -0.37914065 0
10.989201 -5.2570777 0.28280136 0
12.593943 -6.0105596 3.2483273 0
7.739099 -3.6776445 -0.11830294 0
13.794013 -6.5455675 3.1586747 0
5.8290405 -2.7529845 -0.3189455 0
13.704103 -6.4560781 2.413559 0
13.813944 -6.4804034 3.898582 0
11.014219 -5.1523557 0.28265855 0
4.1639981 -1.9383359 -0.4745051 0
5.8690639 -2.7181714 -0.32398489 0
13.884124 -6.4312944 2.433471 0
4.6090293 -2.1233988 -0.43438646 0
7.8391404 -3.5980282 -0.1184175 0
3.8240123 -1.7485664 -0.51463616 0
5.2090645 -2.3684475 -0.38923088 0
11.054243 -5.0177007 0.28248447 0
13.174047 -5.9613576 3.0081022 0
5.2240806 -2.3485701 -0.38925228 0
11.069252 -4.9628382 0.28241575 0
12.969055 -5.7965612 2.9579537 0
5.2690978 -2.3386922 -0.39426628 0
11.089262 -4.9079762 0.28234836 0
3.8740642 -1.7039258 -0.51967001 0
4.6840959 -2.0538857 -0.43945298 0
7.9991961 -3.4935405 -0.12356269 0
13.769173 -5.9971299 2.3929653 0
14.259073 -6.1766171 3.5880835 0
6.0091572 -2.5889168 -0.32913449 0
9.9242687 -4.2535191 0.031868562 0
13.714351 -5.8530502 0.62781405 0
13.239112 -5.6321845 2.9926856 0
4.7341466 -1.9992512 -0.44450209 0
7.0042129 -2.9440589 -0.24894658 0
10.039295 -4.198782 0.026780605 0
13.324354 -5.5433779 0.61754692 0
13.669146 -5.6674519 3.0726233 0
14.084126 -5.80234 3.5226798 0
5.3842039 -2.2044923 -0.39939848 0
7.0692506 -2.8743775 -0.25402281 0
8.2342825 -3.3293128 -0.13377529 0
11.344347 -4.5640059 0.28190005 0
3.9641957 -1.5898275 -0.52475142 0
4.3592129 -1.7348472 -0.4896718 0
14.229171 -5.6378384 3.5374565 0
4.8292398 -1.899922 -0.44958624 0
5.4592619 -2.1299243 -0.40446475 0
6.1992846 -2.409914 -0.33932135 0
8.3693342 -3.2297642 -0.13889575 0
10.419382 -3.9996407 0.021493763 0
11.524396 -4.3945537 0.28168315 0
11.509402 -4.3596244 0.28164953 0
13.349429 -5.0244756 0.61196774 0
43.914951 -16.436699 3.5676289 0
11.484419 -4.2598376 0.28155303 0
11.509426 -4.2399058 0.28152797 0
43.549999 -15.957377 2.4521585 0
43.399994 -15.792496 2.4420011 0
44.094925 -15.937243 3.5669904 0
44.114922 -15.832354 3.5668623 0
11.624459 -4.1352496 0.28140184 0
10.779466 -3.8054395 0.016236901 0
8.6644402 -3.0306709 -0.14912388 0
7.4094315 -2.5758379 -0.2693359 0
6.4094257 -2.2109799 -0.35450283 0
5.6544242 -1.9311001 -0.41962799 0
5.6744328 -1.9261614 -0.41963395 0
5.0294328 -1.6912683 -0.46473595 0
4.544435 -1.5163642 -0.50481093 0
4.1494398 -1.3764546 -0.54487002 0
11.849535 -3.881012 0.28112787 0
11.124545 -3.6161776 0.01100871 0
8.8845272 -2.861388 -0.15429652 0
7.5745211 -2.42154 -0.27447382 0
6.5545192 -2.0766687 -0.35960981 0
5.7695203 -1.811782 -0.42471257 0
5.1095223 -1.5918832 -0.47479603 0
4.6095266 -1.4219737 -0.5148586 0
4.2295322 -1.2920583 -0.55490506 0
12.574614 -3.8066878 0.28094772 0
11.359618 -3.4068573 0.0057991147 0
9.0896072 -2.7020426 -0.1594452 0
7.7296057 -2.2771819 -0.28459093 0
6.6746063 -1.9472998 -0.36970142 0
5.8746095 -1.6974026 -0.43478319 0
5.8796182 -1.6874648 -0.43478987 0
5.8896275 -1.672528 -0.43479714 0
5.9046369 -1.6625899 -0.43480322 0
5.9146457 -1.6526527 -0.43980953 0
5.9296546 -1.6427146 -0.43981555 0
5.9296637 -1.627777 -0.4398227 0
5.9496727 -1.6178389 -0.43982843 0
5.9546819 -1.6079011 -0.43983456 0
5.9646912 -1.5929632 -0.43984112 0
5.9696999 -1.5830255 -0.43984714 0
5.9997096 -1.5730875 -0.44485226 0
6.8447223 -1.7831205 -0.37980732 0
7.9547362 -2.0531468 -0.29475132 0
11.554759 -2.9580941 0.0054385662 0
42.129887 -10.707217 2.3070564 0
4.3597403 -1.0983893 -0.5699656 0
6.0397558 -1.5134004 -0.44988164 0
9.5347767 -2.3683619 -0.17971665 0
13.189793 -3.2533109 0.28044119 0
42.689873 -10.437529 3.3567352 0
4.8297796 -1.1736189 -0.53495347 0
6.9447956 -1.6736276 -0.38486692 0
11.609817 -2.7735763 0.005313158 0
42.799904 -10.152935 2.3314846 0
4.3998075 -1.033812 -0.56997907 0
6.1048212 -1.4238367 -0.45491955 0
9.7048388 -2.2488256 -0.18480277 0
12.334848 -2.8288233 0.28026795 0
12.319843 -2.8038404 1.1652497 0
4.8898473 -1.1040474 -0.54497135 0
7.0398607 -1.5790727 -0.39491436 0
7.0498705 -1.5641361 -0.39492092 0
7.0598798 -1.5491995 -0.39492735 0
7.0798888 -1.5342628 -0.39493361 0
7.0898986 -1.5193262 -0.39493987 0
7.1099081 -1.5093899 -0.39994577 0
6.1999164 -1.2994618 -0.45996639 0
5.5099258 -1.1445304 -0.5099802 0
4.9449348 -1.0095965 -0.54999006 0
4.5099444 -0.90966046 -0.58499622 0
65.834984 -13.114536 3.4103954 0
4.5249643 -0.89478284 -0.58999777 0
4.989974 -0.97484201 -0.55499637 0
5.5649843 -1.0749022 -0.51499629 0
5.5699944 -1.0599638 -0.51499867 0
5.0100002 -0.94499999 -0.55999994 0
4.5599999 -0.84500003 -0.59500003 0
14.465 -2.635 0.28 0
11.79 -2.1199999 0 0
10.265 -1.8200001 -0.20500001 0
10.265 -1.795 -0.20500001 0
10.32 -1.78 -0.21000001 0
10.33 -1.755 -0.21000001 0
10.36 -1.735 -0.21000001 0
10.39 -1.72 -0.21000001 0
11.85 -1.9349999 0 0
14.855 -2.3900001 0.28 0
44.755001 -7.1100001 1.3299999 0
45.830002 -7.1849999 3.5249999 0
4.6350002 -0.72000003 -0.60500002 0
5.7049999 -0.875 -0.52999997 0
8.7600002 -1.325 -0.34 0
11.905 -1.775 0 0
45.150002 -6.6550002 2.4100001 0
4.6700001 -0.68000001 -0.61000001 0
5.7150002 -0.81999999 -0.52999997 0
6.5349998 -0.92500001 -0.48999998 0
8.8800001 -1.24 -0.345 0
10.715 -1.475 -0.22499999 0
12 -1.625 0 0
14.495 -1.9299999 0.28 0
44.860001 -5.8800001 1.3299999 0
44.994999 -5.7849998 1.3349999 0
45.009998 -5.6849999 1.3349999 0
14.865 -1.84 0.28 0
14.405 -1.75 0.28 0
45.805 -5.4650002 1.35 0
45.950001 -5.3800001 1.355 0
25.525 -2.925 0.875 0
14.585 -1.635 0.28 0
14.62 -1.605 0.28 0
14.68 -1.58 0.28 0
12.215 -1.285 -0.0049999952 0
9.1999998 -0.94499999 -0.36499998 0
7.73 -0.77499998 -0.44500002 0
6.7950001 -0.66500002 -0.51999998 0
5.9450002 -0.565 -0.55999994 0
4.8049998 -0.44499999 -0.63 0
12.27 -1.095 -0.0049999952 0
9.3400002 -0.80500001 -0.37499997 0
6.855 -0.57499999 -0.52499998 0
5.3449998 -0.435 -0.60000002 0
12.375 -0.95999998 -0.0099999905 0
11.4 -0.85500002 -0.25500003 0
9.4700003 -0.69 -0.38500002 0
7.9099998 -0.55500001 -0.46000001 0
6.0599999 -0.41 -0.57500005 0
4.8899999 -0.31999999 -0.64499998 0
44.814999 -2.77 1.3199999 0
12.585 -0.745 -0.014999986 0
12.6 -0.72000003 -0.014999986 0
12.61 -0.685 -0.014999986 0
12.645 -0.66000003 -0.014999986 0
11.71 -0.58499998 -0.26500002 0
11.73 -0.56 -0.27000001 0
9.7399998 -0.44 -0.40000001 0
8.0900002 -0.345 -0.47499999 0
7.0500002 -0.285 -0.54499996 0
