# .PCD v0.7 - Point Cloud Data file format
VERSION 0.7
FIELDS x y z intensity
SIZE 4 4 4 4
TYPE F F F F
COUNT 1 1 1 1
WIDTH 1373
HEIGHT 1
VIEWPOINT 0 0 0 1 0 0 0
POINTS 1373
DATA ascii
-35.485016 24.489325 7.4921632 0
-41.121689 28.245617 1.5884656 0
-39.034763 26.68145 0.42370886 0
-39.675724 26.98908 -0.69007421 0
-9.7862759 6.7085695 -1.9181314 0
-45.187462 30.255781 6.7873406 0
-40.137466 26.774382 -0.69848228 0
-36.726055 24.245024 7.6313167 0
-44.300755 29.103819 1.6631612 0
-45.483009 29.568991 6.7647371 0
-12.780144 8.3452549 -2.1851735 0
-44.644642 28.603539 4.1324029 0
-45.611301 28.925507 5.4629922 0
-19.687454 12.434922 -2.9288137 0
-12.655113 7.9463973 -2.1337109 0
-19.381296 11.93823 -2.8628247 0
-19.207804 11.655057 -2.8201084 0
-37.372368 22.223036 -3.6657357 0
-18.810501 11.059286 -2.7347999 0
-12.380856 7.2040052 -2.040117 0
-9.6364603 5.5390983 -1.7889609 0
-18.219633 10.170575 -2.6067755 0
-12.26545 6.7700772 -1.9939342 0
-9.5373344 5.2048588 -1.746855 0
-17.704828 9.3660889 -2.4980927 0
-12.105056 6.3316207 -1.9426503 0
-9.443368 4.8805513 -1.7046411 0
-17.059946 8.5428848 -2.3692131 0
-11.949894 5.9080892 -1.8912053 0
-9.3847694 4.5859141 -1.6722139 0
-16.481003 7.7939816 -2.2547545 0
-11.754857 5.4899607 -1.8345854 0
-9.2961521 4.2866192 -1.6397331 0
-16.018131 7.1338973 -2.1647098 0
-11.534877 5.0720992 -1.7778692 0
-9.2176876 3.9972 -1.6071606 0
-9.2067337 3.9172332 -1.5978514 0
-15.51912 6.3741999 -2.0654356 0
-11.283932 4.5695162 -1.7118064 0
-9.118432 3.6379187 -1.5651346 0
-15.137653 5.8232107 -1.9894969 0
-11.139819 4.2209172 -1.6745747 0
-9.0102358 3.3637791 -1.5273033 0
-14.831786 5.321456 -1.9282522 0
-10.975821 3.877486 -1.6322227 0
-8.8770199 3.0849113 -1.4894325 0
-14.466055 4.8252978 -1.8617835 0
-10.756835 3.5295699 -1.5797571 0
-8.744009 2.8210282 -1.451409 0
-8.7031021 2.741389 -1.4419992 0
-8.64221 2.6619294 -1.4275421 0
-13.963168 4.1355605 -1.7716365 0
-10.476694 3.0772562 -1.5180167 0
-8.5903339 2.4973478 -1.413821 0
-21.056204 5.836359 -2.2827191 0
-13.633751 3.7439606 -1.7142568 0
-10.288513 2.794066 -1.4800007 0
-10.262893 2.7393191 -1.4754051 0
-8.3972511 2.2190099 -1.3657323 0
-13.254395 3.3528361 -1.6517341 0
-8.3459787 2.1044207 -1.3515713 0
-13.047041 3.1399448 -1.618068 0
-12.97117 3.0606992 -1.6035649 0
-10.003378 2.3317473 -1.4182357 0
-18.557234 4.1175747 -1.9568129 0
-9.9018517 2.1927137 -1.3991611 0
-18.098846 3.8073661 -1.8984051 0
-17.927555 3.6891768 -1.8790157 0
-12.460364 2.5308764 -1.5218434 0
-8.0958652 1.6364807 -1.2898527 0
-8.0753794 1.5916475 -1.2851698 0
-12.207627 2.2784271 -1.483362 0
-8.0142574 1.4871498 -1.2708757 0
-16.954367 2.9343801 -1.7531242 0
-9.4957867 1.6314846 -1.3178372 0
-9.4552517 1.5818844 -1.3131464 0
-9.4097281 1.5322961 -1.3034438 0
-16.324511 2.4809306 -1.6754512 0
-11.686955 1.7486219 -1.4015125 0
-9.2728872 1.3585694 -1.2795277 0
-7.7703629 1.119179 -1.2182596 0
-15.745175 2.0719154 -1.6024921 0
-11.429017 1.4711926 -1.3631603 0
-9.0856543 1.1452883 -1.2457997 0
-7.6385069 0.94026142 -1.1893669 0
-11.196847 1.2634779 -1.3292948 0
-11.151229 1.2039077 -1.3196622 0
-11.075668 1.1496539 -1.3099225 0
-42.349018 3.9546292 -2.7636678 0
-42.377018 3.7697594 -2.7651732 0
-7.4862118 0.71648085 -1.1557478 0
-10.893663 0.95647061 -1.2860174 0
-10.838107 0.90200227 -1.276314 0
-32.573357 2.3940487 -2.0652995 0
-8.7158489 0.67862779 -1.1785815 0
-14.283977 0.99698085 -1.4277771 0
-27.493141 1.720222 -1.0598254 0
-10.630929 0.68903679 -1.2474849 0
-62.053585 3.3561113 -2.7346034 0
-8.5891857 0.51478601 -1.1595327 0
-10.509627 0.56020325 -1.2281923 0
-22.356943 0.99883884 -0.28956637 0
-13.780107 0.61714756 -1.3695822 0
-22.313087 0.84778088 -1.3306475 0
-8.4375505 0.35115328 -1.1354178 0
-13.518479 0.45479152 -1.3402419 0
-63.184277 1.529232 -2.8009079 0
-8.3615675 0.25181034 -1.1209815 0
-19.297672 0.3916603 -1.5677731 0
-7.105844 0.17954773 -1.0838829 0
-10.115768 0.17401782 -1.1752025 0
-17.23325 0.16239615 -0.16511142 0
-13.015103 0.11485399 -1.2816868 0
-63.937813 -0.054436013 -2.8443711 0
-9.9794044 0.035316981 -1.1559186 0
-12.81365 -0.033130776 -1.2573397 0
-62.415009 -0.76645321 1.5836668 0
-12.702833 -0.1170311 -1.2427118 0
-6.928678 -0.044025 -1.0550911 0
-17.93058 -0.32413849 -1.4451606 0
-8.0329504 -0.1203116 -1.0679449 0
-63.954998 -1.7952869 -2.8622723 0
-6.862781 -0.13854128 -1.0406114 0
-6.8425007 -0.16839845 -1.035774 0
-7.9517498 -0.24459608 -1.0586407 0
-9.5456371 -0.35559118 -1.0977776 0
-17.311094 -0.78254873 -1.392148 0
-6.7315326 -0.27251342 -1.0162543 0
-63.267933 -3.4942434 -2.8431799 0
-12.047879 -0.63048059 -1.1699793 0
-9.4392633 -0.49959338 -1.0835519 0
-9.480422 -0.57763475 4.4759731 0
-11.911947 -0.7291339 -1.1553779 0
-9.3535185 -0.57878542 -1.0739152 0
-9.4779463 -0.66159236 3.7053781 0
-62.340702 -4.7320008 -2.8101037 0
-16.696596 -1.2510504 -1.3391529 0
-11.730492 -0.88229656 -1.1410564 0
-7.7136607 -0.57256961 -1.0253822 0
-6.5595007 -0.4911736 -0.99236453 0
-61.50304 -5.5167489 -2.7789025 0
-9.3224268 -0.79182208 -0.63029015 0
-9.5624447 -0.83578748 -0.42609468 0
-61.31422 -5.9088659 -2.7762592 0
-9.4004641 -0.86591327 1.1240945 0
-9.4551811 -0.89648527 1.1287681 0
-9.2855721 -0.90132403 1.334105 0
-6.4635224 -0.60047972 -0.97288013 0
-9.0006895 -0.88553417 -1.0302444 0
-9.1761932 -0.92543232 -0.61587644 0
-9.356658 -0.97041148 -0.19655648 0
-9.4014177 -0.99585104 -0.19682223 0
-9.4062309 -1.0158905 -0.19696417 0
-9.27071 -1.0229052 -0.41172662 0
-9.1497583 -1.0284843 -0.83651483 0
-6.3575954 -0.70465744 -0.95832908 0
-9.1292 -1.0882694 -0.8368665 0
-7.4058404 -0.88498604 -0.98178959 0
-55.065964 -7.3434606 -2.4879627 0
-9.1533604 -1.178496 -0.83751726 0
-6.2518268 -0.79386765 -0.93867469 0
-9.2031355 -1.2505533 -0.6280936 0
-7.3098731 -0.99421 -0.96729255 0
-9.2724228 -1.3261868 -0.63374138 0
-64.735825 -9.9948549 4.6434417 0
-6.15592 -0.89816362 -0.92413163 0
-6.1506495 -0.92814541 -0.92431223 0
-6.1204891 -0.94791937 -0.91936541 0
-6.1152205 -0.97790211 -0.91954458 0
-6.0950017 -1.0027376 -0.91965497 0
-6.059854 -1.0225016 -0.90969658 0
-6.0445876 -1.0523871 -0.90985358 0
-8.3400717 -1.5196115 -0.95294023 0
-6.0092983 -1.0871316 -0.90498817 0
-7.0451913 -1.3232759 0.58124423 0
-14.307635 -2.7915671 -1.1443504 0
-8.244401 -1.5987653 -0.94322515 0
-6.9069238 -1.3409261 -0.91359246 0
-6.8967938 -1.3558393 -0.91366291 0
-8.218977 -1.6485637 -0.93847644 0
-6.8466043 -1.3804487 -0.90370405 0
-64.264969 -13.859969 4.6336818 0
-6.9818859 -1.460319 -0.42449287 0
-62.415745 -13.901894 7.5075603 0
-6.7609968 -1.454766 -0.89396083 0
-8.0577707 -1.7921439 -0.92400825 0
-22.239931 -5.1658778 -1.4122316 0
-6.6904263 -1.5242218 -0.88422811 0
-7.9422727 -1.8561615 -0.90913177 0
-21.74374 -5.3159208 -1.3770791 0
-7.8869095 -1.9006802 -0.90427732 0
-62.24749 -15.798472 4.5206079 0
-9.7218733 -2.4330816 -0.94176567 0
-61.555874 -16.068151 0.030308634 0
-7.7761984 -1.9897603 -0.88956511 0
-63.339577 -17.012053 10.795597 0
-9.5959845 -2.5419102 -0.93214142 0
-61.381355 -16.930031 1.5052649 0
-7.6605797 -2.0687654 -0.87976646 0
-20.27091 -5.6912766 -1.2860897 0
-6.3935604 -1.7619112 -0.84994972 0
-12.775546 -3.6564937 -1.0263041 0
-5.5455184 -1.5589406 -0.84173298 0
-9.3794441 -2.7349341 -0.91279721 0
-19.559547 -5.8792601 -1.2406117 0
-6.3027835 -1.8612428 -0.84031415 0
-19.324064 -5.9469299 -1.2254733 0
-7.4190831 -2.2617562 -0.85533929 0
-12.299056 -3.8569922 -0.98640168 0
-5.4146562 -1.6730403 -0.8270756 0
-12.148756 -3.9005783 -0.97630644 0
-5.3943906 -1.7079489 -0.82222509 0
-7.2783065 -2.3656056 -0.84060526 0
-11.948161 -3.98369 -0.9613198 0
-6.1464925 -2.0301008 -0.82590485 0
-18.137241 -6.2203507 -1.1543376 0
-7.1827636 -2.4398367 -0.8307941 0
-5.283792 -1.7922144 -0.80742335 0
-8.8418159 -3.0851283 -0.86856532 0
-5.2486162 -1.8169525 -0.80746806 0
-17.621323 -6.3603621 -1.1189419 0
-7.0521674 -2.5237942 -0.81595385 0
-17.391035 -6.4081173 -1.1086667 0
-5.935605 -2.1585321 -0.80110502 0
-17.165716 -6.4609623 -1.0934354 0
-5.8904018 -2.1882019 -0.79615617 0
-11.255972 -4.2972627 -0.90646648 0
-6.901433 -2.6275637 -0.80615711 0
-5.1027493 -1.9410348 -0.78778541 0
-16.635178 -6.5608897 -1.0627235 0
-6.8311372 -2.6720304 -0.7962271 0
-5.052516 -1.9756995 -0.78284538 0
-6.7858548 -2.711684 -0.79133677 0
-52.297836 -21.586077 10.673197 0
-53.894135 -22.40107 0.0094278753 0
-10.83972 -4.4834123 -0.88149703 0
-4.9870806 -2.0403335 -0.77301896 0
-10.734441 -4.5274744 -0.87148285 0
-4.9568682 -2.0701289 -0.77310276 0
-8.1689768 -3.4943247 -0.81419992 0
-15.499166 -6.7701778 -0.99110532 0
-6.5748916 -2.8550208 -0.776577 0
-15.298941 -6.8132906 -0.98085356 0
-6.5197067 -2.8845935 -0.77159357 0
-10.353549 -4.6740351 -0.84632993 0
-4.8163648 -2.1542563 -0.75317192 0
-10.253325 -4.7131596 -0.83628535 0
-5.453433 -2.4901621 -0.74664903 0
-14.73847 -6.9230604 -0.94502401 0
-6.3542204 -2.9683535 -0.7515974 0
-23.574228 -11.312032 -1.0720122 0
-7.7875681 -3.7161343 -0.78440201 0
-4.7307367 -2.2487621 -0.7484237 0
-9.9923172 -4.8707895 -0.82144332 0
-5.3328409 -2.5843449 -0.7368052 0
-14.167882 -7.0527215 -0.9142369 0
-6.1836743 -3.0620632 -0.73662031 0
-21.777405 -11.060475 -0.98596072 0
-7.5619531 -3.8242927 -0.76436377 0
-4.6252651 -2.3281343 -0.73852587 0
-9.6467981 -4.9777679 -0.796085 0
-5.2172608 -2.6785872 -0.72696471 0
-13.59749 -7.1624584 -0.88331234 0
-6.0330858 -3.1609385 -0.72670996 0
-20.334606 -10.912165 -0.92134404 0
-7.3464317 -3.9225357 -0.74927056 0
-4.4999485 -2.3923781 -0.7234813 0
-9.3262844 -5.0849781 -0.77577066 0
-5.0768814 -2.7526588 -0.71193302 0
-13.022389 -7.2422614 -0.84717643 0
-5.8776093 -3.2498236 -0.71171534 0
-19.131149 -10.836116 -0.86270869 0
-7.1358786 -4.0258498 -0.73421526 0
-4.3795953 -2.4616804 -0.70847607 0
-9.0307827 -5.19245 -0.75550079 0
-4.9564133 -2.8368897 -0.70200193 0
-12.482331 -7.3174133 -0.81607866 0
-5.7171888 -3.3336854 -0.69667149 0
-31.530916 -18.86121 0.94132495 0
-8.8254938 -5.2606902 -0.74526572 0
-4.8561816 -2.8862412 -0.69195282 0
-39.919792 -24.385855 -1.0506473 0
-12.097186 -7.3889666 -0.79536641 0
-6.8252339 -4.163435 -0.70901299 0
-4.2339816 -2.575917 -0.69359255 0
-17.293024 -10.804229 -0.78747594 0
-8.5601454 -5.3484898 -0.72495711 0
-5.5315571 -3.4523721 -0.68671358 0
-4.1838012 -2.6106215 -0.6936034 0
-16.843569 -10.790168 -0.76613891 0
-8.41504 -5.3872933 -0.71472335 0
-4.6707659 -2.9800682 -0.67684388 0
-38.9025 -25.509109 -1.0486869 0
-8.2999268 -5.4213319 -0.70955646 0
-4.6404881 -3.0249071 -0.67697132 0
-16.134558 -10.753806 -0.73393691 0
-8.1947718 -5.4604616 -0.70444191 0
-5.3360844 -3.5560384 -0.67162764 0
-25.951239 -17.678799 -0.62206507 0
-11.007531 -7.5044703 -0.73282409 0
-6.3894534 -4.3501253 -0.67863476 0
-4.4954352 -3.0640218 -0.65670764 0
-25.20266 -17.586903 -0.60445273 0
-10.747817 -7.5072613 -0.71707344 0
-6.284318 -4.38936 -0.66851246 0
-4.4601479 -3.1138504 -0.65682745 0
-24.558559 -17.555946 -0.58744216 0
-10.503059 -7.5151963 -0.70138729 0
-6.1891747 -4.4286532 -0.66340911 0
-4.4050016 -3.1485453 -0.65181053 0
-23.785353 -17.418938 -0.56951487 0
-10.283208 -7.5333257 -0.69081378 0
-6.0841284 -4.457901 -0.65322101 0
-4.3349009 -3.178118 -0.64673102 0
-23.305468 -17.479425 -0.55841303 0
-10.063359 -7.5514698 -0.68024147 0
-5.9890323 -4.492208 -0.64808321 0
-4.28476 -3.2128627 -0.64172065 0
-22.865458 -17.555244 -0.55248177 0
-7.4092832 -5.679213 -0.65312719 0
-4.2346668 -3.2375524 -0.64167321 0
-13.459386 -10.505322 -0.61983478 0
-7.3141856 -5.7134728 -0.64799392 0
-4.8353181 -3.7777741 -0.6310966 0
-3.6926997 -2.888135 -0.64331937 0
-22.065603 -17.672737 -0.54067397 0
-9.4837942 -7.6016631 -0.64870989 0
-5.7237601 -4.590313 -0.63270879 0
-4.1144357 -3.3018909 -0.63157868 0
-21.625782 -17.728672 -0.52961862 0
-9.2988634 -7.6301503 -0.63827097 0
-5.6287236 -4.6196747 -0.62253642 0
-4.0643024 -3.3366489 -0.62656391 0
-21.086746 -17.68882 -0.517784 0
-9.0891418 -7.6334453 -0.62763 0
-5.5287204 -4.6439705 -0.61732352 0
-4.0042038 -3.3662965 -0.6264981 0
-20.28463 -17.416903 -0.49402526 0
-8.8943787 -7.6418772 -0.61705065 0
-5.4386787 -4.6733546 -0.61215949 0
-3.9392083 -3.3859704 -0.61635959 0
-19.418238 -17.054506 -0.46960482 0
-8.7046165 -7.650362 -0.60648084 0
-5.3486371 -4.702744 -0.6069957 0
-3.8742046 -3.4056168 -0.61122108 0
-18.765453 -16.858887 -0.45163611 0
-8.5148134 -7.6638598 -0.59594429 0
-5.2585983 -4.7321401 -0.60183108 0
-3.8240292 -3.4453573 -0.61123335 0
-18.172323 -16.703762 -0.43903962 0
-8.3300924 -7.6674109 -0.58535564 0
-5.1586528 -4.751492 -0.59158516 0
-3.7590294 -3.4650123 -0.60609293 0
-17.519754 -16.478226 -0.42091855 0
-10.949157 -10.324138 -0.51613355 0
-8.1104317 -7.6706924 -0.57465065 0
-5.0486565 -4.7807598 -0.58634627 0
-3.6840291 -3.4896517 -0.59593642 0
-3.2621894 -3.0961912 -0.60773838 0
-42.075745 -40.923759 -0.053787738 0
-10.560019 -10.285967 -0.49970147 0
-6.0847483 -5.9293647 -0.56999767 0
-4.1448193 -4.0436578 -0.57996929 0
-3.1922066 -3.115865 -0.60257399 0
-10.28575 -10.24375 -0.48859999 0
-7.6910706 -7.6824665 -0.55331314 0
-7.6611395 -7.682261 -0.54820395 0
-10.141073 -10.23258 -0.48306295 0
-15.715823 -15.972977 -0.37276748 0
-3.1320846 -3.1556273 -0.60252225 0
-3.5089517 -3.5587842 -0.58560896 0
-4.7437735 -4.8538232 -0.56561661 0
-9.8717623 -10.19543 -0.47200659 0
-3.4739349 -3.5736325 -0.58054912 0
-7.3766398 -7.6800914 -0.53724778 0
-3.4539177 -3.5835383 -0.58051527 0
-7.3167686 -7.6796579 -0.5320307 0
-14.7245 -15.654731 -0.34803894 0
-3.8898368 -4.1222334 -0.56440938 0
-14.559978 -15.623369 -0.34235343 0
-3.0220592 -3.2002013 -0.59230244 0
-44.816868 -48.639732 -0.098639846 0
-4.5289683 -4.8925047 -0.55002379 0
-4.5038919 -4.9123573 -0.55002427 0
-4.4689336 -4.9171333 -0.54991698 0
-4.4339848 -4.9219398 -0.54480982 0
-5.3605585 -6.0193863 -0.52789557 0
-3.7099292 -4.1712995 -0.54896295 0
-6.7279038 -7.6753469 -0.4999921 0
-4.329082 -4.9413061 -0.53951716 0
-3.6399989 -4.1859384 -0.54376388 0
-4.2291803 -4.9607186 -0.53423464 0
-3.5400624 -4.2104125 -0.53850603 0
-3.0939696 -3.7069161 -0.55470586 0
-15.979143 -19.510937 0.13027203 0
-15.500299 -19.466927 0.13210551 0
-11.680874 -14.720102 -0.26849672 0
-7.8225274 -9.8896599 -0.38859627 0
-6.0542483 -7.6805658 -0.47261873 0
-4.7566109 -6.0554671 -0.49587628 0
-3.9245706 -5.008997 -0.51331818 0
-3.3301933 -4.2693787 -0.5279634 0
-2.9240882 -3.7562034 -0.54425538 0
-2.6268525 -3.3888047 -0.57158542 0
-14.747132 -19.405668 0.13499716 0
-10.993462 -14.519689 -0.25520048 0
-7.4384861 -9.8618212 -0.37710974 0
-5.7600231 -7.6585646 -0.45645472 0
-4.5569229 -6.0792446 -0.48523632 0
-3.7647729 -5.038136 -0.50283957 0
-3.2052689 -4.3088236 -0.51764822 0
-2.8141572 -3.7907624 -0.53896868 0
-2.5220187 -3.4084532 -0.56124401 0
-14.013995 -19.339664 0.13786142 0
-10.316257 -14.289473 -0.23678485 0
-7.0546379 -9.8090639 -0.36049113 0
-5.4757586 -7.6416764 -0.44034347 0
-4.3522768 -6.0980115 -0.47455946 0
-3.6000905 -5.052258 -0.49226794 0
-3.0704525 -4.3331819 -0.51222944 0
-2.7042313 -3.8253362 -0.53368044 0
-2.4220667 -3.4431231 -0.55599523 0
-13.325665 -19.299089 0.14049689 0
-9.6640959 -14.049531 -0.21838126 0
-6.6907387 -9.7614765 -0.3489379 0
-5.2064857 -7.6249075 -0.42925563 0
-4.1527104 -6.1068416 -0.46382764 0
-3.4353693 -5.071373 -0.48671576 0
-2.9456069 -4.3626308 -0.50684679 0
-2.5992758 -3.864959 -0.52841985 0
-2.3320849 -3.4828784 -0.55078435 0
-12.701856 -19.324081 0.14266625 0
-9.0715675 -13.855087 -0.20535463 0
-6.3318739 -9.7089729 -0.33736739 0
-6.2970309 -9.6987543 -0.33218524 0
-6.2472525 -9.6783991 -0.33192107 0
-6.2173266 -9.6781902 -0.33180365 0
-8.787755 -13.762987 -0.19890481 0
-6.1475568 -9.6677303 -0.32649603 0
-4.8224831 -7.6124663 -0.41273335 0
-3.8485115 -6.1000996 -0.44761142 0
-3.2157314 -5.1103282 -0.47099182 0
-2.7608509 -4.4068685 -0.49627534 0
-2.4345412 -3.8993816 -0.51787329 0
-2.1823471 -3.5124412 -0.54027116 0
-11.764119 -19.296717 0.14625886 0
-8.2500372 -13.589062 -0.18613547 0
-5.8087153 -9.610445 -0.31495479 0
-4.5633159 -7.5808582 -0.40159246 0
-3.6540203 -6.0990324 -0.43683949 0
-3.0610175 -5.1295681 -0.4654586 0
-2.6360955 -4.4263864 -0.48583725 0
-2.3246696 -3.9290044 -0.5125463 0
-2.0825665 -3.527184 -0.5299021 0
-11.205025 -19.362391 0.14806417 0
-7.7174764 -13.390246 -0.17326877 0
-5.4799008 -9.5482769 -0.30341718 0
-4.3190718 -7.5593925 -0.39054129 0
-3.4794204 -6.1131334 -0.42618838 0
-2.8965657 -5.1137867 -0.45471981 0
-2.5063708 -4.4408579 -0.48036376 0
-2.2198744 -3.9486787 -0.50717282 0
-1.9925913 -3.5669551 -0.52968717 0
-10.665867 -19.438288 0.14977428 0
-7.2197075 -13.216753 -0.16063091 0
-5.1561489 -9.4761906 -0.29184875 0
-4.0797882 -7.542995 -0.37953392 0
-3.2900002 -6.1021528 -0.41537961 0
-2.7667115 -5.1532454 -0.44934222 0
-2.3816123 -4.4603825 -0.47492698 0
-2.1101255 -3.9633589 -0.49676415 0
-1.892843 -3.5766971 -0.52429152 0
-10.14168 -19.519361 0.15142559 0
-6.7518058 -13.058537 -0.14815563 0
-4.8423514 -9.4092178 -0.28033891 0
-3.8555026 -7.5267348 -0.36855909 0
-3.1154642 -6.1062751 -0.40968177 0
-2.6270037 -5.1726527 -0.44384 0
-2.2667506 -4.4949937 -0.46958795 0
-2.0052567 -3.9930341 -0.49644473 0
-1.8029555 -3.6065216 -0.51902056 0
-1.7781709 -3.5814176 -0.51381767 0
-1.7830188 -3.6064687 -0.51893103 0
-9.5029688 -19.574678 0.15364343 0
-6.1945653 -12.829782 -0.13502079 0
-4.4985819 -9.3571234 -0.26875022 0
-3.5913312 -7.5102863 -0.35742322 0
-2.9059997 -6.1152744 -0.39887074 0
-2.4524262 -5.1869388 -0.43318012 0
-2.1171863 -4.499486 -0.45896545 0
-1.8805462 -4.0127239 -0.48597863 0
-1.6832827 -3.6162655 -0.50853729 0
-8.9494648 -19.560711 0.15583512 0
-5.7567782 -12.646888 -0.12752566 0
-4.2047548 -9.2903528 -0.26230481 0
-3.367142 -7.4790926 -0.34638616 0
-2.736567 -6.1044827 -0.39311168 0
-2.3030059 -5.1663456 -0.42245689 0
-1.9925376 -4.5040631 -0.45345441 0
-1.7757525 -4.0324302 -0.48560736 0
-1.5934618 -3.63609 -0.50821424 0
-8.2091799 -19.075537 0.16076505 0
-5.3437996 -12.48925 -0.11523336 0
-3.9308231 -9.2387848 -0.25098464 0
-3.1528714 -7.4579697 -0.34042624 0
-2.5621405 -6.0937061 -0.3823497 0
-2.1781569 -5.2058883 -0.42209026 0
-1.8827541 -4.5287595 -0.448073 0
-1.6710387 -4.0421782 -0.48018429 0
-1.4937626 -3.6409123 -0.4977968 0
-7.5381517 -18.690935 0.1650003 0
-4.9457922 -12.331744 -0.10798997 0
-3.6667759 -9.2022934 -0.24476805 0
-2.9436326 -7.4319115 -0.33445486 0
-2.4025698 -6.1030278 -0.37671915 0
-2.0385582 -5.2103748 -0.41651836 0
-1.7631414 -4.5284028 -0.44254836 0
-1.5663668 -4.0469651 -0.46973804 0
-1.4039882 -3.6557887 -0.49244872 0
-7.7203193 -20.434944 1.6869825 0
-7.6654987 -20.429567 1.6872211 0
-7.610671 -20.424166 1.6824596 0
-7.5507841 -20.428757 1.6826555 0
-1.3590807 -3.6657181 -0.49228778 0
-1.5063673 -4.0818524 -0.4746075 0
-1.6633912 -4.5431514 -0.43716678 0
-1.6483959 -4.5480957 -0.43713501 0
-1.4616135 -4.0617151 -0.46934327 0
-1.3142405 -3.6656511 -0.49207637 0
-6.3107324 -17.95277 0.17296349 0
-4.2045531 -12.042284 -0.088796437 0
-3.1490381 -9.0745153 -0.22710553 0
-2.545085 -7.3900371 -0.31761816 0
-2.5251427 -7.3899422 -0.31753716 0
-2.5101674 -7.3948798 -0.31748936 0
-2.4803572 -7.3747201 -0.31729242 0
-2.4605217 -7.359652 -0.3121368 0
-2.445513 -7.3695908 -0.31211415 0
-2.4206364 -7.3594646 -0.31197551 0
-2.4056611 -7.3644042 -0.31192794 0
-2.3857188 -7.3643112 -0.31184736 0
-2.3560152 -7.3291798 -0.30657586 0
-2.3458352 -7.3641272 -0.31168541 0
-2.3259583 -7.3540354 -0.31155542 0
-1.9043795 -6.0610614 -0.35442355 0
-1.6199715 -5.1989927 -0.39965937 0
-1.6100218 -5.1989961 -0.39460745 0
-1.5949914 -5.2089181 -0.39959666 0
-1.5850339 -5.2088971 -0.39954469 0
-1.570117 -5.2038689 -0.39446005 0
-1.555192 -5.1988163 -0.39437547 0
-1.545202 -5.2037959 -0.39434817 0
-1.530277 -5.1987433 -0.39426371 0
-1.3294138 -4.5573125 -0.42575845 0
-1.1824077 -4.0912333 -0.4582068 0
-1.1773779 -4.1012478 -0.45821813 0
-1.1624452 -4.0961986 -0.45814005 0
-1.15248 -4.0961819 -0.45809451 0
-0.92565185 -4.5865574 -0.41407546 0
-1.1920942 -5.9936938 -0.33108547 0
-1.7010643 -8.6276922 -0.17922908 0
-3.0676906 -15.743178 0.19526254 0
-3.0230227 -15.707932 0.19558953 0
-2.9832616 -15.687716 0.19583799 0
-2.9336545 -15.642441 0.19621868 0
-2.893954 -15.612227 0.19651315 0
-2.854161 -15.597013 0.19673716 0
-2.8095832 -15.546771 0.1971319 0
-2.7648504 -15.521528 0.19740908 0
-2.7250593 -15.506316 0.19763444 0
-2.680449 -15.461076 0.19800438 0
-2.6456227 -15.450894 0.19819531 0
-2.6059504 -15.415686 0.19851017 0
-2.5612776 -15.380445 0.1988323 0
-2.5215428 -15.355237 0.19909997 0
-2.4768996 -15.314999 0.19944432 0
-2.4421947 -15.284822 0.19972658 0
-2.4024284 -15.264614 0.19997002 0
-2.3577533 -15.229378 0.20028993 0
-2.3179865 -15.209171 0.20053267 0
-2.2782497 -15.183966 0.20079809 0
-2.2435145 -15.158792 0.20105734 0
-2.198838 -15.123557 0.20137556 0
-2.1689188 -15.128413 0.20148772 0
-2.1243629 -15.07318 0.20189852 0
-2.0845952 -15.052978 0.20214102 0
-2.0448873 -15.022776 0.20242885 0
-2.010119 -15.002603 0.20266303 0
-1.9703501 -14.982402 0.20290452 0
-1.9306413 -14.952201 0.20319116 0
-1.8909913 -14.912001 0.20352235 0
-1.8610417 -14.921861 0.2036114 0
-2.5322821 -20.708153 0.66142768 0
-2.5519867 -21.165117 2.1644661 0
-0.47986987 -4.1055636 -0.43006751 0
-0.67929673 -5.9173813 -0.31353191 0
-1.2159375 -10.767035 -0.031206042 0
-1.6375097 -14.785763 0.20509455 0
-2.2480989 -20.721653 0.66251659 0
-2.2031898 -20.731421 0.66265988 0
-2.1532815 -20.741159 0.66281056 0
-2.1084321 -20.740927 0.66299856 0
-2.0635531 -20.745695 0.66316414 0
-2.0137041 -20.745436 0.6633594 0
-4.4095678 -46.492352 2.2396924 0
-0.3752878 -4.1005211 -0.42956492 0
-0.36541864 -4.0855379 -0.42445406 0
-0.35529944 -4.1105094 -0.42952129 0
-0.34530538 -4.1155033 -0.42949942 0
-0.34024534 -4.1305046 -0.43452939 0
-0.32549313 -4.0954928 -0.42932257 0
-0.31549981 -4.1004891 -0.42930016 0
-0.34292731 -4.55586 -0.39632979 0
-0.37463892 -5.1362786 -0.35891458 0
-0.36471772 -5.1312957 -0.35384306 0
-0.34976009 -5.1312609 -0.3537862 0
-0.33980218 -5.1312551 -0.35373691 0
-0.32984561 -5.1312513 -0.35368666 0
-0.31494597 -5.1212173 -0.35358593 0
-0.30495903 -5.1262121 -0.35355881 0
-0.2900303 -5.1211786 -0.35348019 0
-0.28007254 -5.1211739 -0.35343102 0
-0.27014366 -5.1161695 -0.35335997 0
-0.25518593 -5.1161361 -0.35330346 0
-0.24522813 -5.1161323 -0.35325435 0
-0.2303279 -5.1061001 -0.35315433 0
-0.22034131 -5.1110959 -0.35312715 0
-0.21041216 -5.1060925 -0.3530564 0
-0.19545437 -5.10606 -0.35300013 0
-0.18549736 -5.1060576 -0.35295054 0
-0.17057535 -5.1010475 -0.34787276 0
-0.16061741 -5.1010447 -0.34782395 0
-0.15063098 -5.1060414 -0.34779677 0
-0.13570166 -5.1010103 -0.34771916 0
-0.12574373 -5.1010075 -0.34767041 0
-0.11581422 -5.096005 -0.34760025 0
-0.10091308 -5.0859747 -0.34750137 0
-0.09087003 -5.1009722 -0.34751716 0
-0.080940187 -5.0959697 -0.34744731 0
-0.066215575 -5.0559621 -0.34222034 0
-0.055996105 -5.1009378 -0.3473644 0
-0.046067234 -5.0959373 -0.34729382 0
-0.031193828 -5.0809083 -0.3471742 0
-0.021151379 -5.0959067 -0.34718975 0
-0.011165319 -5.1009054 -0.34716263 0
0.003883804 -5.1158543 -0.35217068 0
0.013491193 -5.0558977 -0.34186772 0
0.023771474 -5.1108537 -0.35205266 0
0.038498562 -5.0708466 -0.34682783 0
0.048226312 -5.0308685 -0.34161064 0
0.063414782 -5.0708184 -0.34672448 0
0.073602766 -5.1107965 -0.35184506 0
0.083212793 -5.0508399 -0.34154424 0
0.093225777 -5.0608411 -0.34153774 0
0.10812845 -5.0508137 -0.34144065 0
0.11794823 -5.025815 -0.34128794 0
0.12807272 -5.0558147 -0.34136602 0
0.14305855 -5.0607877 -0.34133199 0
0.15316179 -5.0857673 -0.34638867 0
0.16286476 -5.0407906 -0.341153 0
0.17779574 -5.0357637 -0.34107754 0
0.18775415 -5.0357652 -0.34103003 0
0.1977675 -5.0457668 -0.34102407 0
0.21275318 -5.0507402 -0.34099016 0
0.22260192 -5.0307426 -0.34085968 0
0.23261423 -5.0407457 -0.34085301 0
0.24234708 -5.0007696 -0.33564004 0
0.2575582 -5.045723 -0.34077176 0
0.26763248 -5.0657043 -0.34580681 0
0.27736604 -5.0257287 -0.34059456 0
0.29232442 -5.0257039 -0.34054026 0
0.30222866 -5.015707 -0.34045193 0
0.31218719 -5.0157099 -0.34040478 0
0.32711169 -5.0107064 -0.33533016 0
0.33707032 -5.0107098 -0.33528313 0
0.34700191 -5.0057139 -0.33521566 0
0.35696054 -5.0057173 -0.33516875 0
0.37186441 -4.9956956 -0.33507332 0
0.38187689 -5.0056992 -0.33506724 0
0.39170125 -4.9807038 -0.33491865 0
0.40679413 -5.0056806 -0.33496657 0
0.41692039 -5.0356636 -0.34004149 0
0.42663115 -4.9906893 -0.33481219 0
0.43664354 -5.0006938 -0.33480617 0
0.44649547 -4.9806991 -0.33467862 0
0.46145421 -4.9806771 -0.33462515 0
0.47138643 -4.9756823 -0.33455846 0
0.48131868 -4.9706874 -0.33449188 0
0.49630406 -4.9756665 -0.33445862 0
0.50614923 -4.9556937 -0.32933131 0
0.51624745 -4.980679 -0.33438519 0
0.53134519 -5.0056376 -0.33943203 0
0.54105937 -4.9606647 -0.3342056 0
0.55099195 -4.9556708 -0.33413944 0
0.56097728 -4.9606771 -0.33411321 0
0.57085061 -4.9457035 -0.32900736 0
0.66449755 -5.6604738 -0.28169581 0
0.78926152 -6.5951624 -0.21520969 0
0.94012457 -7.749836 -0.1195527 0
2.2808769 -18.62112 0.63916552 0
2.7258642 -21.940331 2.2567277 0
0.56293768 -4.4158578 -0.37175551 0
0.64055198 -4.9356942 -0.32867762 0
0.73909098 -5.6354413 -0.28127804 0
0.75401932 -5.630424 -0.28120217 0
0.76897359 -5.6304059 -0.28114596 0
0.77890223 -5.6254139 -0.28107724 0
0.7888307 -5.6204224 -0.28100833 0
0.80372661 -5.610425 -0.27591315 0
0.81871361 -5.6153879 -0.28087685 0
0.82860976 -5.6054168 -0.27578864 0
0.83851278 -5.5954256 -0.2757006 0
0.85351884 -5.6054091 -0.27568391 0
0.8684476 -5.6003928 -0.27560869 0
0.87837559 -5.5954037 -0.27553967 0
0.89333016 -5.5953875 -0.27548406 0
0.90323359 -5.5853977 -0.2753965 0
0.91818821 -5.5853825 -0.27534106 0
0.92814291 -5.5853925 -0.27529237 0
0.94304657 -5.575377 -0.27519837 0
0.95300132 -5.5753875 -0.27514979 0
0.96793061 -5.5703726 -0.27507529 0
0.97786003 -5.5653839 -0.27500758 0
0.99281478 -5.5653696 -0.2749525 0
1.0026937 -5.5503807 -0.27484658 0
1.0176741 -5.555366 -0.27481094 0
1.0275773 -5.5453796 -0.2747235 0
1.0425575 -5.5503654 -0.27468774 0
1.0524875 -5.5453773 -0.27462068 0
1.0674424 -5.5453639 -0.27456591 0
1.0773472 -5.5353761 -0.27447978 0
1.0923271 -5.5403628 -0.27444407 0
1.1022322 -5.5303755 -0.27435818 0
1.1171873 -5.5303626 -0.27430359 0
1.1270924 -5.5203757 -0.27421787 0
1.1420475 -5.5203638 -0.27416345 0
1.1519778 -5.5153766 -0.27409682 0
1.1669328 -5.5153646 -0.27404252 0
1.1768624 -5.5103793 -0.27397528 0
1.1917927 -5.5053682 -0.27390233 0
1.2017232 -5.5003819 -0.27383599 0
1.405839 -6.3597031 -0.20675841 0
1.4157637 -6.3547177 -0.2066879 0
1.4306884 -6.3497081 -0.20661092 0
1.4455822 -6.3397179 -0.20151547 0
1.460538 -6.3396897 -0.20645726 0
1.7206039 -7.4088736 -0.10506278 0
1.7354972 -7.3988662 -0.10496226 0
1.7554641 -7.4038334 -0.10491115 0
2.1939075 -9.1772661 0.02412352 0
2.2137868 -9.1672392 0.024240494 0
2.2336926 -9.1622095 0.024337232 0
2.2535498 -9.1471815 0.024470985 0
2.2734554 -9.1421528 0.024567723 0
2.2882888 -9.1221504 0.02471298 0
3.0471823 -12.059364 0.23494288 0
4.1165032 -16.170715 0.61129105 0
4.1512642 -16.145626 0.61151505 0
14.042345 -54.256321 2.7097754 0
1.033217 -3.876889 -0.4024609 0
1.043262 -3.8918848 -0.40747663 0
1.1549964 -4.2715764 -0.3636913 0
1.3023554 -4.7810807 -0.32532927 0
1.4852328 -5.4054894 -0.26733437 0
1.7240692 -6.2346706 -0.20000517 0
1.7390194 -6.2346654 -0.19994837 0
1.748922 -6.2246842 -0.19986191 0
1.7638488 -6.2196789 -0.19978741 0
2.0736172 -7.2586379 -0.1031045 0
2.0935605 -7.2586112 -0.10303643 0
2.1034324 -7.2436328 -0.10292733 0
2.1233521 -7.2386065 -0.10284153 0
2.1382954 -7.2386045 -0.10278004 0
2.6611624 -8.9516964 0.026788235 0
3.5240803 -11.763502 0.23787495 0
4.7828236 -15.864049 0.60988641 0
5.52807 -18.202438 1.1075755 0
1.1924025 -3.8322675 -0.40163127 0
1.3140525 -4.2019048 -0.36276647 0
1.4864223 -4.7263074 -0.32438377 0
1.4963362 -4.7163262 -0.32430598 0
1.7040898 -5.3306375 -0.26618949 0
1.7140464 -5.3306575 -0.26614407 0
1.987728 -6.1497021 -0.19865856 0
2.327167 -7.1435685 -0.096698612 0
2.8947997 -8.8364897 0.033096701 0
3.8070283 -11.548109 0.23976152 0
5.236196 -15.81295 0.61164904 0
17.141737 -51.505188 3.9115729 0
1.2868755 -3.7975321 -0.40110937 0
1.5908148 -4.6814966 -0.31879684 0
2.0871992 -6.1097217 -0.19813704 0
3.0091166 -8.7764025 0.033747032 0
6.7119632 -19.528645 1.1809614 0
1.6355892 -4.6665554 -0.31857273 0
2.476217 -7.0585856 -0.09580493 0
5.565331 -15.827154 0.61766773 0
17.716534 -50.217823 5.0937686 0
1.3565197 -3.7777283 -0.40075502 0
1.4980987 -4.1422882 -0.36181518 0
2.5459254 -7.0435538 -0.095505327 0
6.9344192 -19.183256 1.1731232 0
1.705156 -4.6317053 -0.31816408 0
1.9378089 -5.2409105 -0.26494166 0
2.6055453 -7.0085697 -0.09515205 0
5.8387237 -15.67663 0.61917299 0
18.864956 -50.504051 5.1561527 0
1.5627818 -4.1274576 -0.36150005 0
1.9925916 -5.230937 -0.26471487 0
2.3060315 -6.0248404 -0.19700643 0
2.6801348 -6.9785948 -0.094760299 0
5.9319029 -15.396647 0.61563969 0
19.716848 -50.991955 3.9517415 0
1.470956 -3.7480602 -0.40019408 0
1.6225019 -4.1125884 -0.36121956 0
1.8245716 -4.5969086 -0.31758615 0
2.3856063 -5.9949088 -0.19659829 0
3.4216764 -8.5611992 0.036039189 0
4.4272976 -11.027552 0.24400002 0
6.0644846 -15.026665 0.60759521 0
24.421213 -60.35004 7.7077498 0
1.6771576 -4.0827451 -0.36089775 0
2.1317883 -5.1661453 -0.26395407 0
2.8592427 -6.9136024 -0.09389329 0
4.5465531 -10.95244 0.24468395 0
7.4660115 -17.917746 1.1300205 0
1.7268946 -4.062861 -0.36064342 0
1.943977 -4.5571141 -0.32200035 0
2.1963575 -5.1262813 -0.26355967 0
2.549721 -5.9250441 -0.19575411 0
2.9636204 -6.8586645 -0.093314976 0
3.6601877 -8.4161615 0.037408277 0
4.7253284 -10.822333 0.24578558 0
6.305264 -14.381783 0.60099947 0
7.7988877 -17.697199 1.1319468 0
1.649942 -3.6736665 -0.39922705 0
1.8214369 -4.0381255 -0.36019483 0
2.0434 -4.5123701 -0.32145885 0
2.3207846 -5.091445 -0.26299563 0
2.6839638 -5.8601894 -0.19504389 0
3.1177566 -6.7837477 -0.092506528 0
3.8441532 -8.3261595 0.03837131 0
4.938808 -10.657269 0.247136 0
6.5276113 -14.006758 0.59820163 0
7.9293823 -16.932558 1.1054503 0
1.7395184 -3.6489391 -0.40380648 0
1.9158976 -3.9934042 -0.35968789 0
2.1478071 -4.4626207 -0.32090297 0
2.4351313 -5.0366702 -0.26238629 0
2.8182375 -5.8003511 -0.19436166 0
4.0031323 -8.2212076 0.039292887 0
6.7056322 -13.731757 0.59485006 0
8.2579975 -16.836998 1.1068039 0
1.8041142 -3.6142094 -0.40343443 0
1.9804122 -3.9436831 -0.35925618 0
2.2222905 -4.4128857 -0.31544331 0
2.5296307 -4.9968495 -0.26191494 0
2.927716 -5.7654877 -0.19386172 0
3.3861878 -6.6389899 -0.091063708 0
4.1671867 -8.1312551 0.040158823 0
5.2857666 -10.272384 0.24973728 0
6.938343 -13.421743 0.5917744 0
8.6157837 -16.596567 1.1087888 0
1.8886099 -3.5695412 -0.40296808 0
2.3369391 -4.4080324 -0.32005879 0
3.0320959 -5.7056565 -0.19329587 0
4.2813292 -8.0313778 0.045901299 0
5.4297109 -10.147416 0.25065738 0
7.10183 -13.221766 0.59304667 0
8.8390455 -16.376394 1.1052881 0
1.9483078 -3.5497777 -0.40268138 0
2.1446142 -3.8891728 -0.36348721 0
2.4214785 -4.368259 -0.31963077 0
3.1415439 -5.6608157 -0.19277889 0
4.4104075 -7.926517 0.046706393 0
7.2804575 -13.051742 0.59422505 0
2.1994047 -3.8793039 -0.36327603 0
3.6745832 -6.4892993 -0.08959195 0
9.2477846 -16.330748 1.111594 0
12.315184 -21.705082 4.9286127 0
2.7981977 -4.8774362 -0.26058206 0
5.6978521 -9.9325094 0.25228021 0
12.807748 -22.327017 4.4525709 0
2.4807401 -4.2686839 -0.31402865 0
4.544517 -7.8266525 0.047490075 0
12.37938 -21.351667 3.6952538 0
2.2590301 -3.8445592 -0.36293897 0
4.5843558 -7.8166633 0.047645688 0
12.780773 -21.800571 3.7795403 0
2.2688642 -3.8196619 -0.36280617 0
4.6141353 -7.7917151 0.047834828 0
12.689056 -21.431028 3.7307546 0
2.555527 -4.2688079 -0.31879446 0
7.6331215 -12.776645 0.59126806 0
3.8586094 -6.3995271 -0.088700056 0
12.792974 -21.26594 3.7166591 0
2.3186581 -3.8098223 -0.36260542 0
5.931376 -9.767601 0.25357756 0
2.9473822 -4.8028007 -0.26483265 0
9.4726515 -15.466453 1.0855794 0
2.1422384 -3.4605923 -0.40668932 0
4.7482409 -7.6868739 0.048615828 0
13.000851 -21.072451 4.2979522 0
2.6400807 -4.2290602 -0.31838354 0
7.8416643 -12.596659 0.59252059 0
13.306114 -21.363371 4.9725204 0
3.9779696 -6.3397083 -0.088119924 0
13.553128 -21.639267 3.8171644 0
3.0119874 -4.7630014 -0.26448146 0
13.724806 -21.785267 2.6320148 0
13.575435 -21.484621 5.6327529 0
4.8576493 -7.6269693 0.049148083 0
13.560841 -21.321268 4.3834066 0
2.6947098 -4.189291 -0.31805882 0
6.1498494 -9.5827866 0.25488934 0
3.0766926 -4.7381325 -0.264204 0
9.7046204 -14.996783 1.0780008 0
2.236727 -3.4160047 -0.40622053 0
3.5592129 -5.4366565 -0.19066826 0
13.318008 -20.414045 3.0812621 0
13.586771 -20.760025 5.5055542 0
4.971911 -7.5421405 0.049789399 0
13.779526 -20.907764 3.155509 0
2.2665293 -3.3961751 -0.40604672 0
3.6139407 -5.4117646 -0.19041952 0
9.8330202 -14.746971 1.0742776 0
3.1661866 -4.6884036 -0.2637513 0
6.3685923 -9.4429083 0.25599623 0
13.871258 -20.55636 4.3070941 0
2.8140357 -4.1247263 -0.31745324 0
6.4082985 -9.4029512 0.25624475 0
14.000905 -20.541157 4.3174591 0
2.552402 -3.6957152 -0.36645451 0
3.7034249 -5.356987 -0.18996266 0
6.4729342 -9.362999 0.25656405 0
14.156369 -20.452625 3.138144 0
2.3460202 -3.3415916 -0.40559784 0
2.8787172 -4.0949187 -0.32215741 0
3.758162 -5.3320894 -0.19471908 0
5.2406425 -7.42237 0.050946936 0
8.5724564 -12.116673 0.59620798 0
10.154944 -14.292263 1.0667852 0
2.4108269 -3.3367701 -0.41039321 0
2.9333587 -4.0551686 -0.32184675 0
3.8377533 -5.2922802 -0.1943523 0
5.3350005 -7.3425612 0.051492035 0
8.756567 -12.021659 0.59700358 0
15.014556 -20.577841 3.814688 0
2.4355264 -3.2970543 -0.40515503 0
2.9931302 -4.0403271 -0.32162735 0
3.9074275 -5.2624311 -0.19405603 0
5.4345875 -7.3076501 0.051874474 0
8.9058294 -11.941671 0.59765625 0
10.316946 -13.777935 1.0540891 0
2.4651263 -3.2373967 -0.39983919 0
2.7413478 -3.5915549 -0.3705112 0
3.0627248 -3.9956083 -0.32127139 0
3.4695046 -4.5143728 -0.26725563 0
4.0068488 -5.1977282 -0.19355306 0
4.6395659 -5.9958305 -0.090061426 0
5.5836439 -7.1879368 0.052678734 0
7.0199056 -9.0134745 0.25920433 0
9.2194033 -11.791693 0.60393023 0
10.645154 -13.557965 1.0556394 0
2.5647738 -3.2177417 -0.40948823 0
2.8358729 -3.5469632 -0.37008438 0
3.1621737 -3.9360085 -0.32578316 0
3.5788782 -4.444777 -0.26671055 0
4.7788696 -5.9211164 -0.089445263 0
7.1989517 -8.898654 0.26003182 0
9.4984026 -11.706631 0.60486507 0
11.109606 -13.632358 1.0713881 0
2.6294188 -3.183104 -0.40917554 0
2.9155052 -3.512274 -0.37474683 0
3.2467635 -3.8963301 -0.32541624 0
3.6683884 -4.3901033 -0.26628348 0
4.240602 -5.0583868 -0.19745904 0
4.9181828 -5.8464184 -0.088841021 0
7.4079432 -8.7838535 0.2609151 0
11.548877 -13.656888 1.087237 0
2.7040727 -3.1484263 -0.41385797 0
2.9700286 -3.4477062 -0.36936089 0
3.3213055 -3.8416979 -0.32502529 0
4.3401566 -5.0136356 -0.19706041 0
5.0226197 -5.7766676 -0.09335205 0
6.0463762 -6.933651 0.049672738 0
7.6020856 -8.6890221 0.26167414 0
9.9657383 -11.357026 0.60711563 0
11.611371 -13.177789 1.0740666 0
2.7636139 -3.0888941 -0.41347781 0
3.0596235 -3.4080768 -0.37399271 0
3.4108257 -3.7870893 -0.32960579 0
3.8623602 -4.2708082 -0.27038726 0
4.4644589 -4.9290671 -0.19646573 0
5.1768708 -5.6920424 -0.092700362 0
6.2153993 -6.8040414 0.050495759 0
7.8409872 -8.5592813 0.26263079 0
10.108717 -11.00274 0.60364926 0
12.034946 -13.042703 1.0853801 0
2.8481877 -3.044353 -0.41810033 0
3.1391058 -3.3435826 -0.37355879 0
3.5153155 -3.7325354 -0.32915953 0
3.9717674 -4.2012687 -0.26988086 0
4.613842 -4.8644242 -0.20090994 0
5.3311162 -5.6024408 -0.092049897 0
6.4145689 -6.7143598 0.051229253 0
8.0799093 -8.4295721 0.26356465 0
12.639422 -13.151977 1.1061739 0
13.41439 -13.931312 3.8999772 0
3.5849462 -3.6878562 -0.33383986 0
8.1445532 -8.3796892 0.26386073 0
14.573151 -14.98624 3.1936309 0
4.0663095 -4.1466112 -0.27448055 0
10.220739 -10.434056 0.60081959 0
13.684045 -13.956046 3.9403975 0
4.7232075 -4.7798514 -0.20037958 0
38.543308 -39.115204 5.3420019 0
13.517558 -13.667813 4.3460646 0
6.5737414 -6.604733 0.051926702 0
13.472821 -13.54092 3.3964429 0
4.1260209 -4.1118379 -0.27423164 0
39.568989 -39.613068 5.442184 0
13.862713 -13.827271 4.421164 0
6.6284742 -6.5698547 0.052152902 0
13.58231 -13.470972 3.4018788 0
4.1608362 -4.086978 -0.27407518 0
40.455276 -39.923183 4.1926885 0
14.498658 -14.261023 4.5808682 0
10.288921 -10.079924 0.59713638 0
13.836907 -13.546631 3.9070392 0
6.7031255 -6.5250173 0.052449644 0
13.385617 -13.031932 3.3279715 0
4.8625636 -4.7002764 -0.20482147 0
13.877544 -13.443593 2.5124838 0
3.7291186 -3.5786066 -0.33314481 0
40.115116 -38.700638 4.1210437 0
14.141238 -13.602435 4.4324036 0
8.532856 -8.1652184 0.26531917 0
5.6694551 -5.3883801 -0.095633566 0
14.076597 -13.39965 2.9929869 0
3.7739346 -3.5587819 -0.33797964 0
10.34236 -9.7707233 0.59325731 0
3.0768733 -2.8808227 -0.42198411 0
8.6274195 -8.1053734 0.26568773 0
14.190373 -13.33175 3.9283583 0
6.8773575 -6.4253678 0.048109859 0
14.601523 -13.654854 3.5430734 0
4.9468732 -4.5908136 -0.20427823 0
14.316237 -13.308549 2.5436811 0
3.8186555 -3.5190516 -0.33775076 0
14.637619 -13.535648 1.653486 0
14.364336 -13.252864 4.4139123 0
10.391248 -9.5513067 0.59405762 0
14.650222 -13.456185 4.0087423 0
5.8188071 -5.3037529 -0.10007372 0
14.364908 -13.124992 2.9943631 0
3.8534405 -3.4892724 -0.33757535 0
41.593895 -37.820271 4.1562557 0
14.273052 -12.933521 4.3547802 0
10.420526 -9.4067001 0.58957708 0
3.1614444 -2.8263264 -0.42661569 0
5.8684826 -5.253983 -0.099814981 0
14.954934 -13.420063 3.5644124 0
4.4145942 -3.9280365 -0.28301689 0
14.769965 -13.178512 2.574852 0
3.9081957 -3.4595191 -0.33736578 0
41.759392 -37.129295 5.4436541 0
14.507344 -12.853527 4.3804183 0
8.9809933 -7.920887 0.26690197 0
4.4693837 -3.9032156 -0.28283706 0
42.313545 -37.113674 5.4795294 0
3.2111254 -2.7817221 -0.42636093 0
4.4792423 -3.8783584 -0.28273514 0
7.2008996 -6.2261291 0.049321815 0
15.344501 -13.257936 2.6304963 0
3.2460213 -2.7718418 -0.43126354 0
4.5190821 -3.8584993 -0.28260127 0
9.1903286 -7.8410769 0.26747614 0
3.5816381 -3.021193 -0.38649014 0
5.2405567 -4.4168134 -0.20817909 0
10.673249 -8.9928102 0.59125996 0
14.890817 -12.532864 3.9319623 0
4.0375223 -3.3652048 -0.34182164 0
6.1273441 -5.09975 -0.098884732 0
10.687712 -8.8781433 0.59162498 0
3.6363745 -2.9865057 -0.39127401 0
4.0723009 -3.3304374 -0.34165004 0
4.0922751 -3.3304527 -0.34661713 0
5.360076 -4.3521876 -0.21278042 0
5.3800392 -4.3522224 -0.21274468 0
5.3999877 -4.3472595 -0.21269783 0
5.429965 -4.3522663 -0.21266487 0
5.4048142 -4.3124299 -0.21258029 0
5.4297638 -4.3074517 -0.21253023 0
5.4497271 -4.3074875 -0.21249509 0
5.4546342 -4.2875662 -0.21242955 0
5.4645696 -4.2776313 -0.21238148 0
5.4795055 -4.2676816 -0.21232951 0
5.4994555 -4.2627187 -0.21228424 0
5.5194092 -4.2577453 -0.21723911 0
5.5243311 -4.242825 -0.21718508 0
6.4060373 -4.9007072 -0.10284927 0
7.7536907 -5.912384 0.046117827 0
42.358696 -32.294994 3.9683089 0
3.1542404 -2.374131 -0.47009364 0
4.2513971 -3.1964309 -0.35093096 0
6.4607372 -4.8509536 -0.10262093 0
10.037755 -7.5220084 0.26966101 0
42.700905 -31.962954 5.2196517 0
3.474653 -2.5686369 -0.43519273 0
4.8623128 -3.590225 -0.2912055 0
6.5354853 -4.8161354 -0.1074113 0
11.164148 -8.2100906 0.58923149 0
42.852779 -31.491364 6.4561133 0
3.8601732 -2.8079934 -0.39533004 0
5.6986179 -4.1384625 -0.22161427 0
10.232052 -7.4123387 0.2702246 0
43.282665 -31.338688 5.2320256 0
3.5293624 -2.5240409 -0.43996438 0
4.3658543 -3.1120493 -0.35550186 0
6.629951 -4.7215824 -0.1070101 0
11.20807 -7.9708753 0.58994877 0
43.740097 -31.066355 6.5132809 0
3.9098196 -2.7434301 -0.40006313 0
4.9967294 -3.500838 -0.29574397 0
8.1372595 -5.6932926 0.04226245 0
11.472901 -8.0007 0.59519833 0
44.435768 -30.930899 4.0344157 0
3.2885003 -2.2602386 -0.47951463 0
3.5839593 -2.4546206 -0.43966612 0
3.9745896 -2.7137473 -0.4048737 0
3.9895508 -2.7087917 -0.40483931 0
3.9894865 -2.6938748 -0.40479675 0
4.0044479 -2.6889193 -0.4047626 0
3.9993799 -2.6740258 -0.39972398 0
4.0193715 -2.6790478 -0.40470585 0
4.0243196 -2.6691186 -0.40466973 0
4.0442815 -2.664151 -0.40463236 0
4.0241923 -2.6392863 -0.40458593 0
4.0541801 -2.6442933 -0.40456077 0
4.0591426 -2.6393645 -0.40453479 0
4.0690918 -2.6294231 -0.40449563 0
4.0840573 -2.6244595 -0.40946254 0
4.0890074 -2.614531 -0.40942731 0
4.0989695 -2.609592 -0.40939781 0
4.1089315 -2.604651 -0.40936866 0
4.1188817 -2.5947104 -0.40933016 0
4.1238317 -2.5847824 -0.40929535 0
4.1387949 -2.5798295 -0.40926298 0
4.1437454 -2.5699015 -0.40922847 0
4.1486959 -2.5599737 -0.40919408 0
4.158659 -2.5550334 -0.40916559 0
4.178638 -2.5550594 -0.41413936 0
4.1785769 -2.5401444 -0.4140996 0
4.1935401 -2.5351925 -0.41406789 0
4.1985035 -2.5302653 -0.41404328 0
4.2034545 -2.52034 -0.41400936 0
4.2234178 -2.5153766 -0.41397449 0
4.2183571 -2.5004737 -0.41393891 0
4.2333207 -2.4955227 -0.41390774 0
4.2382727 -2.4855959 -0.41387454 0
4.2532401 -2.4806361 -0.41884366 0
4.2682042 -2.4756858 -0.41881284 0
4.2731562 -2.4657593 -0.41878 0
4.8038149 -2.7646623 -0.37394378 0
4.8237772 -2.7597036 -0.37390932 0
5.4745731 -3.1233597 -0.31410572 0
5.4845095 -3.1084297 -0.31405976 0
5.4944572 -3.0985017 -0.31402269 0
5.5094171 -3.09356 -0.3139914 0
5.5193658 -3.0836303 -0.3139548 0
5.5293145 -3.0737009 -0.31391838 0
5.5442514 -3.0587597 -0.31386998 0
5.5542006 -3.0488305 -0.31383386 0
5.5591502 -3.0389125 -0.31380132 0
5.5741024 -3.0289633 -0.31876221 0
5.5840516 -3.0190346 -0.31872657 0
4.9382176 -2.6505039 -0.37850192 0
4.9481697 -2.6405711 -0.37846717 0
4.4174953 -2.3417828 -0.42828938 0
4.4274607 -2.3368487 -0.42826375 0
4.4324155 -2.3269241 -0.42823312 0
4.0168891 -2.0928795 -0.46809337 0
3.6914783 -1.908627 -0.50798082 0
3.6714103 -1.8887624 -0.50295043 0
3.676368 -1.8788329 -0.50292099 0
3.686337 -1.8738925 -0.5028969 0
3.696306 -1.8689523 -0.50287282 0
11.003929 -5.5592971 0.27563208 0
9.5173168 -4.7772889 0.031005427 0
11.013721 -5.5045342 0.27575824 0
11.548456 -5.7504773 1.4807049 0
11.528129 -5.7061391 1.7807801 0
4.1014714 -2.0086126 -0.47279242 0
5.7981586 -2.8352525 -0.32807902 0
11.038295 -5.3899999 0.27601832 0
11.558006 -5.620954 1.47598 0
3.7760143 -1.8145031 -0.51265025 0
4.1363273 -1.9788677 -0.47768542 0
4.5867205 -2.1830523 -0.43772903 0
5.8629208 -2.7855926 -0.32790735 0
6.7937589 -3.213836 -0.24801549 0
7.8947268 -3.7167952 -0.12813866 0
7.9196653 -3.7018437 -0.13308871 0
6.8335881 -3.1740589 -0.24789682 0
5.9276776 -2.7309315 -0.33273146 0
6.8634815 -3.1491959 -0.25281903 0
6.8784318 -3.1392677 -0.25278446 0
6.893373 -3.1243393 -0.25274226 0
5.9774923 -2.691215 -0.3326014 0
5.261795 -2.3476884 -0.39748219 0
5.2767615 -2.3427498 -0.39745679 0
5.9973345 -2.6514654 -0.33250043 0
6.0172925 -2.6415141 -0.33746436 0
8.1440306 -3.562587 -0.13762391 0
6.9929957 -3.0348508 -0.2574788 0
8.1689072 -3.532759 -0.13754463 0
10.160482 -4.3741016 0.02234149 0
14.083432 -6.0322695 0.63210821 0
13.386568 -5.7118721 2.6672044 0
4.3005629 -1.810302 -0.49214521 0
4.7658963 -1.9995273 -0.44715485 0
6.1169262 -2.5570886 -0.34220937 0
10.290135 -4.2894592 0.017591715 0
13.871681 -5.7710314 2.3874342 0
4.3304162 -1.775587 -0.49204525 0
6.1567841 -2.5223043 -0.34211048 0
10.36492 -4.2346892 0.017742664 0
14.301649 -5.8356938 2.4476116 0
13.890893 -5.6374559 3.1026731 0
5.4460878 -2.1838868 -0.40698847 0
6.2116032 -2.4775844 -0.34698257 0
8.4231539 -3.3487053 -0.14701241 0
11.450164 -4.5286098 0.27796263 0
12.975002 -5.1241221 2.5729554 0
4.3951406 -1.711148 -0.49685541 0
6.2664218 -2.4328766 -0.34685734 0
10.599401 -4.1102462 0.013120681 0
12.834785 -4.9642677 2.2131321 0
4.4150372 -1.6863707 -0.49678776 0
6.3012877 -2.3981009 -0.35176697 0
14.446001 -5.5058069 1.7232531 0
13.129356 -4.9799795 2.923286 0
6.3211942 -2.3732626 -0.35170707 0
14.460791 -5.4360633 1.7183744 0
13.239228 -4.9550619 2.9433949 0
6.3461113 -2.3534148 -0.35165212 0
14.585649 -5.4061365 1.7284973 0
4.4648361 -1.6367925 -0.50165021 0
7.3766575 -2.6968248 -0.27156749 0
13.339314 -4.8844771 2.2735734 0
4.9750834 -1.8010789 -0.46659389 0
8.7123661 -3.1447549 -0.15146679 0
12.628532 -4.5563316 2.4836633 0
13.513623 -4.8508806 3.3337252 0
7.4464684 -2.6471167 -0.27643678 0
13.273882 -4.7201142 2.2587891 0
13.808589 -4.8856883 3.3938437 0
7.471365 -2.6172857 -0.27637109 0
13.233675 -4.6404419 2.2488875 0
13.728355 -4.7860632 3.3689477 0
6.4856801 -2.2391508 -0.36135879 0
12.328915 -4.2446885 0.27896175 0
13.793375 -4.7357554 3.0290587 0
13.562818 -4.6271582 3.6740911 0
8.8868713 -3.0054705 -0.16113573 0
13.27807 -4.4914804 2.5841348 0
5.084691 -1.6968722 -0.47632876 0
8.9417725 -2.9806094 -0.16106459 0
13.683086 -4.5561228 2.6492629 0
13.312344 -4.4080229 3.6042717 0
8.9766579 -2.9457827 -0.16099155 0
4.1991 -1.3685906 -0.55132675 0
13.837233 -4.5179982 4.0893993 0
13.863233 -4.5053563 1.9844301 0
5.1295147 -1.647246 -0.48121354 0
9.041502 -2.9010162 -0.16588736 0
13.147383 -4.2125878 2.5494604 0
6.6302099 -2.1050007 -0.37105027 0
14.022868 -4.4559698 2.3495824 0
7.675683 -2.4184272 -0.28593251 0
13.1122 -4.1378984 2.5395451 0
9.1063385 -2.8512585 -0.16577902 0
4.6391139 -1.4433953 -0.5211724 0
12.207706 -3.8016942 0.27953163 0
5.1793475 -1.6026206 -0.48110577 0
12.402725 -3.8315032 0.27959168 0
5.1893067 -1.5876898 -0.48607704 0
12.362625 -3.7917123 0.27962518 0
5.1992803 -1.5827674 -0.48606095 0
11.302126 -3.4332778 0.0045657754 0
13.816781 -4.193265 3.349828 0
9.2260847 -2.7766461 -0.1706084 0
4.6839566 -1.3987595 -0.52606893 0
14.216078 -4.2548046 4.9099479 0
4.2537231 -1.2595239 -0.55609667 0
6.7498312 -1.9907153 -0.37580809 0
13.512006 -3.9875417 1.9249432 0
13.756422 -4.0388694 3.3299971 0
9.320878 -2.7119608 -0.17547095 0
4.3036485 -1.2396884 -0.56603372 0
6.779707 -1.9509686 -0.38073352 0
14.687076 -4.2316632 2.4302013 0
14.711352 -4.2134156 3.9052358 0
9.3757143 -2.6572313 -0.17537069 0
4.3235617 -1.2149159 -0.56598008 0
5.9842277 -1.6724777 -0.44575599 0
13.257138 -3.7068052 0.28016928 0
4.753674 -1.3144429 -0.53089142 0
6.8495045 -1.8863682 -0.38560548 0
13.301124 -3.6693327 2.2202365 0
5.3188391 -1.4487689 -0.49578336 0
9.485466 -2.5776551 -0.18021432 0
4.3584156 -1.1702901 -0.57088816 0
6.0340438 -1.612884 -0.45064399 0
11.38606 -3.0401387 0.0051066279 0
4.353354 -1.1504719 -0.5708586 0
13.12013 -3.4716411 3.4953868 0
11.395921 -2.9853902 0.0051756799 0
4.3883038 -1.1355857 -0.57581723 0
14.315331 -3.7153835 3.7856376 0
11.400784 -2.9306486 0.005241245 0
4.4132528 -1.1207155 -0.58078086 0
5.388577 -1.3644023 -0.50062454 0
9.68507 -2.4433117 -0.18495899 0
15.181127 -3.8177054 2.1108932 0
4.8433123 -1.2003711 -0.54067087 0
6.1237278 -1.5086216 -0.46045652 0
44.782253 -11.022698 1.355649 0
4.8732533 -1.1805029 -0.54562831 0
8.2393608 -1.995819 -0.31508115 0
14.520589 -3.509191 2.0259411 0
4.8731937 -1.1606838 -0.54559958 0
8.2792683 -1.9609855 -0.31502321 0
45.116413 -10.673653 1.361087 0
14.659972 -3.4454813 3.1210651 0
6.1935172 -1.4341065 -0.4653292 0
9.9146299 -2.2840688 -0.19468215 0
14.185814 -3.2485044 0.28106654 0
4.437902 -1.0017303 -0.58059382 0
4.9230199 -1.101149 -0.55049491 0
6.2383785 -1.384439 -0.46524861 0
10.059459 -2.2243521 -0.19956073 0
44.759682 -9.8416977 1.3516508 0
13.759249 -3.0025475 2.9361384 0
5.5330672 -1.1856866 -0.51532245 0
7.1934991 -1.5335555 -0.40500823 0
10.179275 -2.1546803 -0.20444483 0
11.494516 -2.4031873 0.005825758 0
13.144834 -2.7263117 0.28115118 0
4.5326772 -0.92737585 -0.59045029 0
4.5426517 -0.91744459 -0.59543359 0
4.542625 -0.90753245 -0.5954212 0
4.552598 -0.89760655 -0.59540486 0
4.562571 -0.88768083 -0.59538877 0
4.5725536 -0.88275015 -0.6003778 0
14.349678 -2.735698 0.28157079 0
11.634028 -2.1891978 0.0060572326 0
10.48877 -1.9456285 -0.21914735 0
8.7383356 -1.5979483 -0.3394787 0
7.397995 -1.3297458 -0.41972849 0
6.4427567 -1.1410369 -0.48490742 0
5.6825647 -0.99208158 -0.53004956 0
5.0974178 -0.8778947 -0.57015824 0
4.6573048 -0.78851366 -0.61023557 0
14.158966 -2.3674512 0.28177071 0
11.823511 -1.9452907 0.0013035536 0
10.793331 -1.7515082 -0.22889724 0
7.5026879 -1.1955674 -0.42957714 0
5.7523408 -0.8977502 -0.53993392 0
4.6721249 -0.71411735 -0.61015201 0
10.953114 -1.6469532 -0.23377481 0
7.5725183 -1.1160142 -0.43449143 0
