# .PCD v0.7 - Point Cloud Data file format
VERSION 0.7
FIELDS x y z intensity
SIZE 4 4 4 4
TYPE F F F F
COUNT 1 1 1 1
WIDTH 1415
HEIGHT 1
VIEWPOINT 0 0 0 1 0 0 0
POINTS 1415
DATA ascii
5.8094916 -4.2970357 -0.5370065 0
11.681823 -8.8077106 1.042855 0
3.6105704 -2.5909741 -0.65965366 0
5.8289137 -4.2719049 -0.53654814 0
11.685119 -8.7279644 1.0445588 0
3.6099641 -2.5612886 -0.65400803 0
5.0665116 -3.6505632 -0.57949054 0
11.950414 -8.8233843 0.015953749 0
14.891928 -11.046203 2.9996061 0
5.0860415 -3.6304164 -0.57914233 0
45.790524 -33.942955 0.6362704 0
3.6393154 -2.5360374 -0.65858078 0
5.8971868 -4.1963153 -0.5352416 0
12.185109 -8.8245687 0.014769167 0
15.247904 -11.101152 3.0516894 0
5.1251035 -3.5901246 -0.5784471 0
12.269538 -8.8032961 0.014814138 0
15.252698 -10.987629 2.5989766 0
4.5206943 -3.1160994 -0.60530734 0
10.881504 -7.7090983 -0.26497117 0
14.717339 -10.491154 2.5072181 0
4.5453277 -3.1008503 -0.60509622 0
10.9103 -7.6538715 -0.26392987 0
14.908101 -10.533349 2.5303891 0
4.5547757 -3.0758886 -0.60460055 0
15.840641 -11.095069 0.39820334 0
3.7075469 -2.4607611 -0.65724635 0
8.4486647 -5.8028679 -0.38215873 0
14.820661 -10.306777 2.0805418 0
4.5841503 -3.0505619 -0.60919046 0
10.992444 -7.523109 -0.26154283 0
16.27737 -11.237357 2.723577 0
4.5885406 -3.0207937 -0.60356998 0
11.021344 -7.4728813 -0.26060376 0
16.120752 -11.023953 3.1590064 0
5.2518845 -3.4491997 -0.57600617 0
12.15665 -8.1826324 0.028649628 0
3.7765157 -2.4200745 -0.66168642 0
5.2713881 -3.4289637 -0.58066082 0
12.170162 -8.1127167 0.030080169 0
3.8013177 -2.4147174 -0.6666795 0
5.2959237 -3.4087315 -0.58034706 0
11.112861 -7.3121142 -0.25763145 0
16.262779 -10.788431 2.6981895 0
15.887645 -10.506725 3.5511792 0
4.6666484 -2.9402075 -0.60719049 0
6.1456513 -3.9092836 -0.53523839 0
8.683217 -5.5603023 -0.38313445 0
16.586496 -10.770824 1.7967025 0
3.8347697 -2.3448091 -0.66533279 0
4.7007427 -2.9000046 -0.60649192 0
5.3739858 -3.32318 -0.57888007 0
6.1941028 -3.8389792 -0.5339731 0
6.2037754 -3.8239195 -0.53370142 0
7.3376899 -4.5342116 -0.47451106 0
8.7803469 -5.4294701 -0.38082066 0
11.200061 -6.9425063 -0.24518332 0
12.208271 -7.5445223 0.041977808 0
16.048416 -9.9817171 3.0764911 0
3.9133115 -2.2841716 -0.66939569 0
3.8929429 -2.2647538 -0.66386116 0
3.8926318 -2.2498641 -0.6635443 0
3.9176886 -2.2544975 -0.66376221 0
3.9173777 -2.2396073 -0.66344571 0
13.032228 -7.7802463 0.032778218 0
11.238824 -6.6432362 -0.23904666 0
12.914207 -7.6278119 0.036609232 0
45.529316 -27.236183 4.4005437 0
3.9565301 -2.2043028 -0.66786957 0
4.8517613 -2.7240744 -0.60844684 0
5.5494719 -3.1218905 -0.58043647 0
6.3838577 -3.6025419 -0.534863 0
9.0492172 -5.1516347 -0.38127533 0
13.611947 -7.7958198 0.029457808 0
46.110519 -26.70467 3.1883337 0
3.9701684 -2.139771 -0.66154516 0
4.3947015 -2.372519 -0.63864183 0
5.6080832 -3.0614061 -0.58442318 0
6.4471054 -3.5221062 -0.53347242 0
9.1620064 -5.0504026 -0.37971482 0
11.275173 -6.2247701 -0.22537395 0
46.922272 -26.32279 3.2270472 0
47.056049 -26.265926 3.2375472 0
47.506519 -26.412571 4.5324311 0
4.0136223 -2.069803 -0.66025305 0
4.0537052 -2.0789735 -0.6706543 0
4.063581 -2.0738955 -0.67059088 0
4.0583076 -2.0591929 -0.66524804 0
4.068152 -2.0540214 -0.67018378 0
4.0628786 -2.0393193 -0.66484118 0
4.0726628 -2.0292432 -0.66468358 0
14.658279 -7.6644831 0.026749909 0
11.307323 -5.8412213 -0.21247706 0
9.3763714 -4.7883868 -0.38029602 0
7.8399243 -3.9497249 -0.47467026 0
6.6423635 -3.3055191 -0.53487396 0
5.7680969 -2.8306901 -0.58033526 0
5.0606809 -2.4481382 -0.60860109 0
4.5502543 -2.1719339 -0.64012921 0
4.1358552 -1.9490411 -0.66827548 0
14.447818 -7.1402621 0.038828194 0
11.33092 -5.5274138 -0.20603356 0
9.5525074 -4.6066179 -0.37741181 0
7.9513898 -3.783937 -0.47676179 0
7.9660687 -3.7688017 -0.47651955 0
5.8655801 -2.7149942 -0.58339202 0
4.6082902 -2.0817573 -0.64351439 0
4.1940932 -1.8688318 -0.67186904 0
12.144924 -5.6692662 0.081773058 0
11.3504 -5.2536016 -0.19539088 0
9.7038898 -4.4350743 -0.3796111 0
8.0633316 -3.6380968 -0.47427228 0
6.8266149 -3.0344315 -0.53511667 0
5.9180722 -2.5951011 -0.58111978 0
4.6664672 -1.9966753 -0.64199305 0
16.007296 -7.1698394 0.029929519 0
9.8161592 -4.3040614 -0.37744877 0
6.8747449 -2.9443116 -0.53347051 0
5.2502551 -2.1971972 -0.6142503 0
4.6951094 -1.9318098 -0.64076865 0
4.2762132 -1.7339236 -0.66941071 0
11.371898 -4.8304601 -0.18666536 0
8.2187309 -3.4169376 -0.47546545 0
6.0551324 -2.4588497 -0.58897471 0
5.3036418 -2.1219325 -0.61793947 0
5.3033724 -2.1071451 -0.61262703 0
4.7534842 -1.856535 -0.64447904 0
25.969646 -10.772737 1.8670025 0
10.090762 -4.0459743 -0.38354662 0
7.0206504 -2.7483423 -0.53513408 0
5.3569803 -2.0417652 -0.61654377 0
4.3487492 -1.6189022 -0.67234373 0
10.168715 -3.945318 -0.38187745 0
7.0640836 -2.6731017 -0.53879917 0
5.3807487 -1.9819123 -0.61541164 0
4.3927712 -1.5735507 -0.67663503 0
10.256674 -3.8444903 -0.3802726 0
7.1125536 -2.5978689 -0.53749871 0
5.4195786 -1.9266938 -0.61946511 0
4.4067445 -1.5238369 -0.67565858 0
10.334521 -3.7387571 -0.38352141 0
7.1661186 -2.5275455 -0.53632569 0
5.4483566 -1.8667521 -0.61837113 0
4.4559536 -1.4883956 -0.68016982 0
10.40741 -3.6332145 -0.3817465 0
7.1995144 -2.4475918 -0.53485274 0
5.4922261 -1.8115439 -0.61746132 0
4.474844 -1.4335992 -0.6791364 0
10.480308 -3.5276752 -0.37997863 0
7.2479715 -2.3722765 -0.53856575 0
5.5260706 -1.7564254 -0.62149489 0
4.4989161 -1.3887093 -0.67832041 0
10.548094 -3.4171422 -0.38309452 0
7.2914677 -2.2971461 -0.53725433 0
5.5548635 -1.696492 -0.6204114 0
4.5028186 -1.3341827 -0.67720532 0
47.278809 -15.265847 0.84710073 0
11.653037 -3.6225975 -0.15834907 0
10.675298 -3.275955 -0.38091502 0
8.7578545 -2.6332064 -0.47721514 0
7.3588967 -2.1669827 -0.53497124 0
6.4329123 -1.8623785 -0.59362853 0
7.3733587 -2.1418951 -0.53952372 0
8.8215227 -2.5675459 -0.48122838 0
10.772706 -3.1450694 -0.38380292 0
12.112794 -3.5309031 0.12599929 0
12.5203 -3.6503923 1.0315237 0
5.0483403 -1.3663123 -0.6508348 0
7.4167848 -2.061779 -0.53813434 0
7.4314871 -2.0466487 -0.53791082 0
8.8893623 -2.4571955 -0.47936395 0
8.9039736 -2.4370787 -0.47904345 0
8.9086752 -2.422138 -0.47875515 0
7.4702725 -1.9863945 -0.54189956 0
6.5296197 -1.6970576 -0.59579444 0
5.1116681 -1.2859098 -0.65953422 0
4.6288095 -1.1390495 -0.68385839 0
14.433521 -3.8533945 1.8518481 0
11.842413 -3.0726702 -0.14829335 0
11.006159 -2.8082085 -0.38332465 0
7.5377431 -1.8562566 -0.53964686 0
6.5824347 -1.587031 -0.59884942 0
6.5921435 -1.5719844 -0.59860301 0
6.5968542 -1.5570261 -0.5983274 0
6.6116509 -1.5468898 -0.59820116 0
7.5661077 -1.7714176 -0.53809726 0
9.0981798 -2.1407592 -0.48416182 0
11.142748 -2.6319821 -0.38556394 0
14.609855 -3.5059333 1.5127122 0
13.829413 -3.2906172 2.116576 0
4.7009797 -0.99913794 -0.69140387 0
5.8110485 -1.2560349 -0.62783003 0
7.6444125 -1.6857466 -0.54180789 0
11.195467 -2.5118601 -0.38346389 0
14.045401 -3.1665013 0.12236904 0
14.467356 -3.2704377 1.8482798 0
14.240505 -3.1790581 1.8213758 0
13.987939 -3.1053729 2.4744327 0
5.2368045 -1.0410329 -0.66526175 0
6.7080479 -1.3617383 -0.60002077 0
9.2438364 -1.9148512 -0.48546979 0
12.112139 -2.5313926 -0.13903782 0
13.338138 -2.8137646 1.7237639 0
4.7587972 -0.88925147 -0.69449937 0
5.8734059 -1.1211637 -0.63045824 0
11.300816 -2.266537 -0.38419732 0
13.271051 -2.7052486 1.7162921 0
13.552881 -2.7536273 2.7338781 0
7.7552795 -1.4704509 -0.5431416 0
14.97521 -2.9879632 1.5458753 0
13.712432 -2.7216878 2.7635942 0
7.7846737 -1.4401156 -0.54770684 0
14.280992 -2.7792039 1.4839743 0
13.992606 -2.7180018 2.8120701 0
6.7799673 -1.2017816 -0.60223484 0
12.653662 -2.3533342 -0.15363285 0
13.747993 -2.5908608 2.4309473 0
14.324416 -2.6900303 3.2207897 0
9.4090424 -1.6636884 -0.49143729 0
14.797028 -2.7132237 1.8823711 0
14.120069 -2.5769415 2.8341081 0
6.8236051 -1.1315678 -0.60608709 0
11.435307 -1.9711399 -0.37914827 0
13.908586 -2.4532442 2.1176529 0
14.354199 -2.5190613 2.8738918 0
5.9697185 -0.93110406 -0.63721442 0
9.4867973 -1.5432227 -0.48951593 0
13.754081 -2.3200912 1.7660737 0
4.8401184 -0.69974762 -0.69616115 0
14.092654 -2.344435 3.1688788 0
7.9302754 -1.2092936 -0.55398047 0
14.743838 -2.3842065 1.5240289 0
5.3763671 -0.76130158 -0.67044401 0
7.9346261 -1.174489 -0.55331838 0
13.981942 -2.197412 1.7921488 0
13.708677 -2.1552198 3.0897894 0
14.58076 -2.2995369 4.7272654 0
14.549414 -2.2526796 2.9079666 0
14.170905 -2.1880746 4.2417073 0
13.713275 -2.0736935 2.4212556 0
14.34886 -2.1746273 3.9308643 0
13.879229 -2.0546 1.7805265 0
14.320883 -2.1286883 3.5618398 0
14.506582 -2.1030626 1.1658015 0
14.450832 -2.1171293 3.5913157 0
14.52896 -2.0668118 0.82630444 0
6.9642191 -0.90099388 -0.61234438 0
14.376995 -2.0215223 1.4982039 0
8.0270824 -1.0388936 -0.55619919 0
13.572781 -1.88563 2.0706463 0
14.483602 -2.0400004 4.3227787 0
14.000793 -1.9254934 2.4674659 0
14.573268 -2.0140481 4.3477535 0
13.48138 -1.8123568 2.0625999 0
6.9929886 -0.83592474 -0.61624563 0
15.285182 -2.0115712 1.2130444 0
6.0952463 -0.69593281 -0.64330208 0
9.7199526 -1.1766034 -0.49871269 0
13.539844 -1.7269262 2.0689118 0
5.4379334 -0.58180779 -0.67725444 0
8.089839 -0.91868287 -0.55921793 0
14.634956 -1.794928 1.866148 0
6.1091995 -0.64109278 -0.64730978 0
45.856846 -5.6858282 0.95844889 0
13.501406 -1.609399 2.7114811 0
9.7830887 -1.0761815 -0.50212896 0
15.051644 -1.7604356 2.269469 0
6.1335444 -0.60603911 -0.64675808 0
45.904961 -5.3623948 -0.10586956 0
4.9503069 -0.45027527 -0.70684433 0
14.49396 -1.6301327 3.960535 0
13.987522 -1.5148509 1.4652449 0
13.691197 -1.4833691 3.0778673 0
11.580643 -1.1687092 -0.36439642 0
13.781848 -1.4506583 2.4278839 0
14.231823 -1.4814297 3.1897566 0
11.58466 -1.113968 -0.36337236 0
13.402593 -1.3357913 2.0522254 0
14.060095 -1.3989929 3.1523373 0
11.583678 -1.0593177 -0.36231986 0
13.581975 -1.2934803 2.0769873 0
5.5198121 -0.41686153 -0.68450272 0
8.2603865 -0.67750961 -0.56554544 0
14.874987 -1.3474343 1.5432572 0
13.729772 -1.2331543 2.7523665 0
8.2847204 -0.64228278 -0.5700109 0
15.294679 -1.3163148 1.5813863 0
5.0428019 -0.31978458 -0.71984041 0
6.2399683 -0.41566566 -0.65869021 0
10.026958 -0.73925197 -0.50708079 0
15.184737 -1.2097918 1.9291286 0
5.032166 -0.28530705 -0.71910608 0
5.5830359 -0.32163268 -0.68802488 0
8.3377113 -0.53212482 -0.57321179 0
14.18852 -0.97539467 -0.16599482 0
14.482913 -1.0270227 2.1967878 0
5.0513425 -0.24043675 -0.71834862 0
6.2632465 -0.32113224 -0.65699816 0
8.3813677 -0.45694217 -0.57203531 0
11.621668 -0.66613871 -0.35504785 0
13.630127 -0.78107655 -0.1440157 0
14.980921 -0.89062655 2.2664359 0
14.105604 -0.8093468 2.4831808 0
5.0751266 -0.17562729 -0.72223186 0
14.65282 -0.78799492 2.925396 0
5.6404414 -0.18178107 -0.69567561 0
6.3262029 -0.21087372 -0.66525674 0
7.2721195 -0.24565192 -0.6314888 0
7.3018174 -0.23019582 -0.6363709 0
7.2665019 -0.21101224 -0.63079882 0
8.5077124 -0.25608069 -0.58396184 0
8.4923105 -0.23156959 -0.57841372 0
7.3106661 -0.16557132 -0.63519454 0
6.3743863 -0.11084048 -0.66863751 0
5.7034011 -0.071610413 -0.70393705 0
5.147542 -0.035598811 -0.72998095 0
15.024197 -0.39375004 2.6355789 0
14.336205 -0.27195805 -0.15363815 0
11.657903 -0.16857176 -0.35089418 0
8.6293058 -0.065270185 -0.59108758 0
6.4273176 0.0041420748 -0.67177343 0
5.1760826 0.04416389 -0.73362875 0
44.220573 -0.50610191 -0.0049624145 0
14.322255 -0.043494344 -0.14930773 0
11.664628 0.020381127 -0.34741625 0
13.921068 0.024305096 -0.14066672 0
44.323647 -0.096106589 0.001979053 0
44.091915 0.0045670453 0.0052104592 0
43.906391 0.078387097 1.0278722 0
44.547409 0.12759295 3.1153877 0
5.7994161 0.14822562 -0.71533906 0
6.4944501 0.16405551 -0.67915392 0
7.4744396 0.18464865 -0.64457083 0
8.7794685 0.21040735 -0.59681523 0
10.819328 0.25335157 -0.54810381 0
11.755081 0.28521538 -0.34302017 0
13.890737 0.33686107 -0.12968132 0
43.381542 0.91376728 0.026101053 0
43.505192 0.99540168 0.026884049 0
44.398384 1.1098751 0.023686916 0
14.758121 0.49093348 -0.15199637 0
11.852323 0.44591245 -0.34562388 0
11.836819 0.47548491 -0.34499094 0
11.881359 0.50114 -0.34977928 0
10.994973 0.50490826 -0.55949485 0
8.910182 0.4560914 -0.60803401 0
7.5752201 0.42469084 -0.65569663 0
6.5852113 0.40378755 -0.69021285 0
5.8551917 0.38713327 -0.72118878 0
14.282881 0.80095339 -0.13349029 0
11.116899 0.68587106 -0.5618974 0
6.6138978 0.47871023 -0.69399416 0
12.031191 0.80684352 -0.35006902 0
7.6274724 0.58441657 -0.65806377 0
5.888278 0.49678853 -0.72435391 0
14.113744 1.046651 -0.12801364 0
9.0651894 0.74685258 -0.61861503 0
5.9073119 0.55169892 -0.72845495 0
11.301956 0.97736281 -0.57268798 0
6.6709852 0.64832467 -0.69621301 0
5.9163804 0.60635847 -0.72750413 0
5.9210978 0.62139863 -0.7322588 0
5.9159575 0.63110644 -0.7270447 0
5.3512115 0.59737033 -0.76431024 0
5.3560405 0.60733163 -0.76415229 0
5.9002862 0.6704787 -0.7262311 0
5.9449697 0.68625993 -0.7362076 0
6.7238264 0.77333015 -0.70424569 0
6.7284937 0.79327822 -0.70391655 0
5.9642148 0.73120755 -0.73550594 0
6.7379637 0.82325971 -0.70842743 0
6.7427135 0.83820832 -0.70818353 0
5.9685163 0.77099353 -0.73980689 0
5.3790755 0.72173047 -0.76720226 0
5.393795 0.7369374 -0.77201581 0
5.3986259 0.74689537 -0.77185917 0
5.383379 0.76152766 -0.77150834 0
5.3932095 0.77156979 -0.77137995 0
5.3979597 0.78652877 -0.77113974 0
46.476154 5.9157 1.1826479 0
46.108757 6.0025415 0.10114053 0
9.3600636 1.3482428 -0.6445365 0
6.0058317 0.93032849 -0.74215579 0
12.457776 1.7986666 1.1004653 0
12.410786 1.8226136 0.81111813 0
12.76253 1.9330668 -0.37422189 0
12.409613 1.9069531 -0.062549204 0
12.442547 1.9225818 0.51763856 0
12.420597 1.9322455 1.1030432 0
5.4403038 0.94104254 -0.78360903 0
12.424628 1.9919853 1.1040674 0
12.40748 2.0264027 0.81471968 0
12.853969 2.1533911 -0.37589064 0
11.720019 2.0036299 -0.59688008 0
6.8808322 1.2476219 -0.72667611 0
12.901866 2.2835362 -0.37890109 0
9.5385656 1.7438898 -0.6586051 0
7.9969845 1.5046091 -0.69873202 0
5.4529843 1.0800184 -0.78620529 0
9.5869379 1.8441427 -0.66214037 0
6.0807066 1.2343538 -0.76219058 0
11.745078 2.3122396 -0.59665287 0
6.9276848 1.4371845 -0.7386229 0
43.878162 8.57901 0.158797 0
11.753269 2.4266899 -0.59472275 0
8.0733843 1.7245427 -0.71034062 0
6.1187181 1.3541332 -0.77031195 0
5.505229 1.2446724 -0.79861462 0
13.172853 2.8500831 -0.38568524 0
11.765661 2.5909438 -0.59696376 0
8.1213465 1.8496325 -0.71845686 0
6.9746022 1.6266545 -0.7456007 0
5.5139198 1.3241755 -0.80227685 0
41.925476 9.4026203 0.1841048 0
42.093376 9.5398808 0.18545362 0
42.281197 9.6824474 0.18677633 0
12.949288 3.0798061 -0.37545767 0
9.7981777 2.3896322 -0.68396413 0
8.1783056 2.0394311 -0.7255286 0
6.1649804 1.5832436 -0.7816093 0
5.5418768 1.4487034 -0.81028187 0
5.5267215 1.4583423 -0.81002653 0
41.313194 10.232504 1.1867461 0
41.316711 10.332075 1.1933926 0
41.902328 10.597231 0.2043111 0
13.059013 3.4198384 -0.37533632 0
11.807112 3.1385143 -0.59789014 0
9.9234896 2.6852381 -0.69967568 0
8.224679 2.2687688 -0.73189414 0
7.0489287 1.9805194 -0.75996792 0
6.2019486 1.7724874 -0.78858578 0
5.5542302 1.6126181 -0.817541 0
43.003849 11.82085 0.2183646 0
13.273629 3.7668464 -0.38575271 0
10.010106 2.9005997 -0.71155298 0
7.0719433 2.105118 -0.76799238 0
6.1952982 1.8765852 -0.79178131 0
39.40073 11.391084 1.1818966 0
13.494638 4.0244718 -0.39772913 0
10.072536 3.0657988 -0.71915185 0
7.1201191 2.2202387 -0.77633345 0
5.5715389 1.7816057 -0.82477558 0
13.427491 4.1675 -0.39497641 0
10.145278 3.2113144 -0.72715044 0
7.1087241 2.3094757 -0.77977848 0
13.470239 4.3174357 -0.39274785 0
8.376996 2.7585869 -0.7595669 0
5.5847192 1.8960071 -0.83293045 0
10.212212 3.4114103 -0.73422766 0
6.2459784 2.1505606 -0.80747914 0
11.868505 4.0297341 -0.60843623 0
7.1457944 2.4988806 -0.78684664 0
13.524836 4.6766067 -0.39717653 0
8.4384575 2.988348 -0.77112877 0
5.5924625 2.040081 -0.8405776 0
10.322618 3.7118547 -0.74993455 0
6.2485147 2.3094969 -0.81486475 0
11.888909 4.338408 -0.60852206 0
7.182869 2.6883585 -0.79894221 0
13.74352 5.0983887 -0.40656403 0
8.5048046 3.2281699 -0.78258908 0
5.6052299 2.1842277 -0.84827328 0
11.905667 4.5575433 -0.61007524 0
8.5233488 3.3230367 -0.79115641 0
6.3203049 2.5146172 -0.83691657 0
46.167374 17.772459 1.4422518 0
11.923239 4.7220325 -0.61253166 0
8.5515594 3.4428248 -0.79438043 0
6.2942839 2.5835814 -0.83564901 0
44.200291 17.595636 1.4101914 0
11.925901 4.8812904 -0.6150018 0
8.5796003 3.5726879 -0.80245292 0
7.2324233 3.0471063 -0.81840861 0
6.3077126 2.6881034 -0.83903599 0
5.6264606 2.4280114 -0.86942911 0
13.976537 5.9136286 -0.41983166 0
10.600114 4.5475745 -0.78804719 0
7.2555461 3.1718082 -0.82654071 0
6.3458657 2.8081634 -0.85232306 0
44.031311 18.942827 1.4372526 0
43.780201 18.971193 0.32889223 0
14.077098 6.2190027 -0.42556706 0
10.612133 4.7517767 -0.79488599 0
8.6742506 3.9324784 -0.8222537 0
7.273109 3.3361521 -0.83402479 0
5.583828 2.6058595 -0.87133992 0
10.669565 4.92699 -0.80244517 0
6.3480434 2.9970291 -0.86433029 0
12.025032 5.6294661 -0.63374722 0
7.2859793 3.4805598 -0.84181678 0
5.6120048 2.7256756 -0.88459408 0
14.12464 6.7424169 -0.42765573 0
8.7842846 4.2678518 -0.84758902 0
5.6210437 2.7904022 -0.88862181 0
12.085814 5.92415 -0.63949502 0
8.8225937 4.3829961 -0.85600281 0
6.3945632 3.2315125 -0.88089645 0
43.386299 21.430696 0.36890969 0
43.130104 21.46891 -0.74430788 0
14.12903 7.1407385 -0.4315342 0
10.791056 5.5164213 -0.82894444 0
8.8497934 4.5775223 -0.86313546 0
6.4026723 3.3608913 -0.88892508 0
42.908024 22.055492 0.38089782 0
42.34449 21.918894 -0.72339797 0
14.273963 7.4968143 -0.44184801 0
12.203061 6.4688554 -0.6567446 0
8.9118099 4.782721 -0.88031089 0
5.6267271 3.0836854 -0.9090755 0
10.835816 5.8855863 -0.84352803 0
8.9054098 4.8821054 -0.88375783 0
6.3997273 3.5646701 -0.90076375 0
5.6205845 3.1630592 -0.91281796 0
14.293027 7.9253383 -0.44544509 0
10.887692 6.105597 -0.85545838 0
6.3983579 3.6591604 -0.90930986 0
5.6243463 3.2476609 -0.92153966 0
12.270515 7.0077877 -0.6739279 0
8.9810495 5.18712 -0.90452123 0
7.4334955 4.3388987 -0.90436125 0
7.4381504 4.3638306 -0.90400767 0
7.4378533 4.3837662 -0.90870571 0
7.4325109 4.4085464 -0.90830207 0
6.3860459 3.8229735 -0.9167546 0
5.5974483 3.3813162 -0.92936146 0
14.384016 8.5793095 -0.45610365 0
9.0123272 5.4515367 -0.92070472 0
5.6014595 3.4509656 -0.93332732 0
11.028659 6.7504711 -0.88650131 0
6.3838549 3.9771454 -0.92941892 0
14.538391 8.9854698 -0.46584824 0
9.0442591 5.6711798 -0.93258715 0
5.5799203 3.5599456 -0.94157445 0
11.074939 7.020206 -0.89773273 0
6.3869076 4.1164412 -0.93734992 0
12.407336 7.9663496 -0.7003516 0
9.0613651 5.8806033 -0.94456995 0
5.5634198 3.6689274 -0.9448601 0
11.076619 7.2642846 -0.90914762 0
6.3848782 4.2607403 -0.95019364 0
14.836855 9.82757 -0.48494777 0
11.109288 7.4342389 -0.9168148 0
7.512918 5.0919271 -0.95852768 0
5.5267115 3.792568 -0.95283699 0
11.082582 7.5632524 -0.9198004 0
7.5313935 5.2017951 -0.96700692 0
7.5261364 5.22158 -0.96669197 0
5.5155573 3.876874 -0.95653617 0
14.52849 10.106046 -0.47441462 0
9.1238403 6.4295397 -0.97683549 0
5.5244331 3.956666 -0.96540785 0
11.122745 7.9226198 -0.93478155 0
7.5481157 5.4410901 -0.98359835 0
14.326065 10.306753 -0.47056112 0
11.130678 8.0772114 -0.94259202 0
6.3689489 4.6933303 -0.9787724 0
12.441641 9.1426191 -0.73343766 0
7.5506186 5.625381 -0.99594235 0
14.311724 10.640347 -0.4757196 0
9.1675081 6.8985639 -1.0052763 0
5.4911985 4.1947837 -0.98177791 0
12.541537 9.5231037 -0.74846828 0
9.1558552 7.0229354 -1.0134397 0
5.4801712 4.269289 -0.99064648 0
11.128383 8.6302605 -0.96466851 0
6.349906 4.9917002 -1.0043795 0
12.562228 9.8523664 -0.75889194 0
7.5011539 5.9630942 -1.0158705 0
14.094823 11.194625 -0.47185728 0
9.1367502 7.3364301 -1.0288965 0
5.4726133 4.4582629 -1.0079017 0
12.582745 10.19662 -0.76912689 0
7.4837956 6.142096 -1.0282509 0
46.113628 37.556839 0.58997977 0
12.555656 10.360659 -0.77671003 0
11.169891 9.2788906 -0.99571502 0
9.1277924 7.6402092 -1.0445786 0
7.4865632 6.3115129 -1.0408819 0
6.3100553 5.3593698 -1.028976 0
46.209648 38.829136 2.0072834 0
45.552879 38.581486 -2.1737118 0
11.185825 9.5932055 -1.0114096 0
7.4842792 6.485857 -1.053432 0
5.4286714 4.7561159 -1.0334879 0
45.369095 39.311707 -2.177913 0
12.256351 10.734048 -0.77022386 0
9.1618471 8.0944147 -1.0784137 0
12.170575 10.807224 -0.76384687 0
6.3008451 5.6780543 -1.0594821 0
9.1743307 8.289032 -1.0907834 0
12.093443 10.985316 -0.76607561 0
6.2893071 5.7973843 -1.0677787 0
9.1916656 8.4937887 -1.1080453 0
12.080461 11.224384 -0.77275538 0
6.2826843 5.921855 -1.0810362 0
9.1941166 8.6932573 -1.120326 0
6.2570415 5.9761038 -1.0801833 0
11.973104 11.426886 -0.77456331 0
6.236237 6.0404944 -1.0842108 0
12.881665 12.388986 1.6299918 0
11.881701 11.549974 -0.77752233 0
7.3992009 7.2766609 -1.1071895 0
5.3120694 5.2717686 -1.0758526 0
11.84461 11.72382 -0.78002882 0
9.0993776 9.0804234 -1.1396881 0
7.367547 7.4106627 -1.1152438 0
6.1687498 6.2434673 -1.0961734 0
5.290503 5.3958793 -1.08407 0
13.115898 13.259602 1.6957797 0
12.718346 12.925617 1.2328219 0
12.656278 12.935688 0.81316578 0
11.735215 12.095858 -0.78460848 0
10.278882 10.663554 -1.003088 0
9.0695467 9.4688816 -1.164351 0
7.3583722 7.7396321 -1.1457819 0
6.110929 6.4716558 -1.1128594 0
5.2381597 5.5842209 -1.1013136 0
12.285087 12.997295 1.6404884 0
12.373192 13.148129 1.6571549 0
12.197808 13.031764 1.2262398 0
12.771657 13.720173 0.83816099 0
12.785731 13.795194 0.83909822 0
12.563223 13.617041 0.8325758 0
12.439335 13.540246 0.82702005 0
12.527268 13.701209 0.83382142 0
12.492033 13.725557 0.83427465 0
12.695597 13.996704 1.2871274 0
12.344898 13.677104 1.2592182 0
12.304729 13.696391 1.2596222 0
12.244903 13.690411 1.2597623 0
12.052054 13.532833 1.2433933 0
11.928159 13.456054 1.2378392 0
12.220292 13.833427 1.6917596 0
12.389255 14.078983 2.1544056 0
12.292206 14.016422 2.5789661 0
5.1039653 5.9305692 -1.131164 0
5.9553256 6.9373784 -1.1460577 0
7.2398334 8.4406281 -1.1960388 0
8.9130945 10.418777 -1.2161968 0
11.528508 13.494041 -0.83037901 0
11.669071 13.667239 0.82150495 0
11.709838 13.766571 1.2476901 0
11.322103 13.365748 1.6238786 0
11.27919 13.359248 2.0289719 0
11.448014 13.610051 2.476676 0
5.0271974 6.0835805 -1.1388587 0
5.8829823 7.1355243 -1.1631911 0
7.1765065 8.7188635 -1.217165 0
8.5932636 10.462773 -1.194483 0
9.710288 11.865561 -1.0301594 0
12.96679 15.874374 -0.99452162 0
11.287639 13.845472 0.82516158 0
10.985969 13.509916 1.6219152 0
10.767682 13.285853 2.3948348 0
5.8212171 7.2889323 -1.1709678 0
7.1140103 8.932251 -1.229161 0
9.5539494 12.002566 -1.0328435 0
12.167116 15.277356 0.42561066 0
12.465913 15.703057 1.3601627 0
10.708009 13.534782 2.0132234 0
4.9145789 6.3107796 -1.1554821 0
8.2034674 10.515591 -1.1724375 0
11.834282 15.147213 0.42506295 0
10.266074 13.169633 1.5699739 0
11.35399 14.58897 3.0096827 0
7.0363197 9.1653719 -1.2458824 0
13.475968 17.52034 -1.0900612 0
10.615952 13.82887 1.2222565 0
10.631123 13.876698 2.4479105 0
4.8776627 6.4697251 -1.1732917 0
7.9783888 10.566331 -1.1560266 0
11.770001 15.587895 -0.47415063 0
10.546356 13.971588 1.6343261 0
10.226936 13.585917 2.7905326 0
9.4756746 12.704918 -1.0685604 0
11.282783 15.117103 0.86151516 0
10.992824 14.738103 2.9977763 0
9.3859034 12.703336 -1.0632888 0
11.153355 15.09006 0.86159039 0
10.674498 14.455382 2.5101514 0
4.8010635 6.612886 -1.1811818 0
6.9269562 9.5427341 -1.2756786 0
11.436213 15.725709 -0.016278893 0
11.137516 15.343004 1.3098911 0
10.017584 13.832587 2.3993173 0
10.613687 14.712601 2.9636569 0
5.5601368 7.8278975 -1.2081228 0
7.7496758 10.916671 -1.1708043 0
9.3695488 13.237247 -1.0964421 0
10.212898 14.426562 0.83113253 0
10.454741 14.82855 1.2705072 0
9.8126736 13.970131 1.6066483 0
10.385741 14.829825 2.530818 0
4.7036371 6.825634 -1.2031363 0
6.7933698 9.8647919 -1.296151 0
9.3160734 13.540866 -1.1124423 0
9.7320595 14.149538 0.81410539 0
9.9855604 14.566147 1.6536535 0
10.042905 14.690118 2.4950953 0
4.6624579 6.9296379 -1.2116807 0
5.4321113 8.1000443 -1.2292529 0
7.5264373 11.232203 -1.1811169 0
10.859196 16.18906 0.44137365 0
10.08263 15.077106 1.2697605 0
9.823823 14.748113 1.6614201 0
9.7287073 14.665542 2.4707372 0
4.6011205 7.0483313 -1.2249743 0
6.6792097 10.232262 -1.3261607 0
9.248559 14.188857 -1.1490831 0
10.69196 16.415918 0.44470757 0
10.526621 16.222471 0.8877883 0
10.557297 16.341385 1.3492244 0
9.4109945 14.627093 1.6361099 0
10.378505 16.191589 2.2329185 0
10.526907 16.496649 2.7263439 0
4.5244465 7.201592 -1.2378139 0
4.509305 7.2162776 -1.2375801 0
10.264327 16.323305 2.6899164 0
9.6041555 15.372272 2.1198976 0
10.436755 16.785818 2.2901702 0
10.490167 16.983898 1.3774214 0
6.4846597 10.653296 -1.3553189 0
10.44815 17.172773 1.3898808 0
5.1760807 8.6495953 -1.2765827 0
7.2213511 12.14577 -1.2388091 0
10.00952 16.875517 1.8174276 0
7.316875 12.502123 -1.2746458 0
4.3217916 7.4623704 -1.2539517 0
6.3455925 11.025489 -1.385313 0
14.255838 24.808741 1.2040943 0
7.2829437 12.841307 -1.3053577 0
7.2821894 12.906222 -1.3095559 0
4.235507 7.5856547 -1.267177 0
9.2402658 16.601479 -1.3141359 0
4.1852932 7.614666 -1.2666805 0
4.1696806 7.6693044 -1.2709596 0
6.1567154 11.39686 -1.4102335 0
7.2984853 13.641078 -1.3805642 0
7.2675362 13.730465 -1.3843915 0
7.2169094 13.794602 -1.3884693 0
7.2494998 13.994999 -1.4061152 0
7.3060784 14.270898 -1.4378716 0
7.2897468 14.390534 -1.4463829 0
7.2879515 14.545424 -1.4594946 0
7.2860131 14.710379 -1.4774774 0
7.2841034 14.875266 -1.4904662 0
7.3161235 15.120779 -1.5175483 0
7.3045011 15.265475 -1.5257719 0
7.2635775 15.354802 -1.5346009 0
7.2518778 15.504566 -1.5477661 0
7.1816311 15.543397 -1.5471324 0
8.8398771 19.328642 -1.4899977 0
3.7093887 8.2154818 -1.3181117 0
3.679116 8.2449474 -1.3226855 0
3.6488683 8.2743464 -1.3222623 0
3.6136205 8.3036852 -1.3218174 0
3.5882041 8.3432798 -1.3312851 0
3.5578966 8.3776827 -1.3307992 0
5.387403 12.803345 -1.5263408 0
8.5957479 20.62455 -1.5738902 0
3.4773257 8.4462013 -1.3347977 0
6.9308314 16.974241 -1.6693783 0
6.9393053 17.162458 -0.39707133 0
3.4015555 8.5298481 -1.3436309 0
8.3560619 21.100796 -1.6027398 0
4.0587225 10.373968 -1.4278107 0
5.1569891 13.329561 -1.5745661 0
8.1787481 21.353039 -1.6143961 0
3.2800879 8.682744 -1.361535 0
5.0647879 13.543121 -1.5968366 0
5.0289459 13.627496 -1.6007676 0
4.9881463 13.706875 -1.6097445 0
4.9569006 13.821436 -1.6233145 0
4.9208031 13.925877 -1.6319963 0
4.8798938 14.015255 -1.6408564 0
4.8391671 14.08964 -1.6499112 0
4.7933826 14.168963 -1.6588832 0
10.715175 31.943491 -0.1478104 0
5.7503343 17.3456 -1.6578006 0
9.7665262 29.884045 -2.3157864 0
2.9023514 9.0112524 -1.3918813 0
9.634038 30.147112 -2.3274922 0
2.8519964 9.0553923 -1.3962743 0
4.5439863 14.620167 -1.698108 0
10.000482 32.428143 0.63905847 0
3.381664 11.157872 -1.5022237 0
5.3407717 17.859535 -1.6960487 0
2.696573 9.1327572 -1.4000847 0
5.2256751 17.902769 -1.6953726 0
9.9358835 34.497326 -1.006534 0
2.6106682 9.2314034 -1.4137667 0
3.1755474 11.309608 -1.5150857 0
9.3366575 33.312611 3.8755865 0
9.5247374 34.460495 0.66369224 0
4.9005532 18.00787 -1.6936415 0
4.8061094 17.986435 -1.6887543 0
2.9896805 11.43666 -1.5232986 0
4.5918159 17.988209 -1.683443 0
3.8030348 15.34917 -1.7634075 0
2.7719529 11.607758 -0.70093942 0
0.92903173 4.118022 0.22358412 0
0.87954795 4.1158938 0.31865951 0
0.8337428 4.0548534 -0.06200242 0
-4.8781128 23.861605 -2.2574124 0
-2.1209905 10.084247 -1.5276159 0
-5.1661839 23.767139 -2.2912478 0
-2.2320499 10.076659 -1.5423295 0
-3.7525439 16.566143 -1.9134564 0
-9.0929804 39.302956 0.72053117 0
-2.8897195 12.371367 -1.6612852 0
-9.293478 38.956055 0.71633178 0
-3.9708018 16.483629 -1.9095762 0
-2.4306238 10.01409 -1.5381891 0
-5.7622986 23.175152 -2.2435641 0
-5.8458123 23.06921 -2.2398655 0
-2.5449951 9.9927206 -1.5435121 0
-10.312488 39.531204 -1.1779125 0
-3.222621 12.292427 -1.6624485 0
-10.485151 39.220055 2.6084027 0
-10.590157 39.259041 2.6137557 0
-6.5795259 24.09819 -2.3635573 0
-3.3617151 12.255805 -1.6629744 0
-11.079291 39.669308 3.6030889 0
-11.163367 39.608624 3.597326 0
-11.699039 41.113026 1.7292131 0
-6.9178348 24.059845 -2.3743093 0
-6.9673452 24.03429 -2.3696573 0
-11.482117 39.295338 -0.23173186 0
-12.102048 41.035122 -1.2521418 0
-11.870558 39.896877 -1.2151102 0
-11.913657 39.741394 -1.2069918 0
-4.8789163 16.163557 -1.9039903 0
-4.9186687 16.153135 -1.9041302 0
-12.290252 40.018085 -1.2241489 0
-10.438018 33.7159 0.65459096 0
-12.622528 40.524628 3.696594 0
-12.598394 40.120205 3.6669338 0
-10.689063 33.831291 4.795773 0
-10.909697 34.32209 7.4517026 0
-5.1217904 16.050903 -1.9004996 0
-12.866903 39.902805 -1.2259519 0
-12.546253 38.655613 -0.23012951 0
-11.362727 34.831299 3.226681 0
-11.544164 35.116795 4.9849257 0
-11.368647 34.377934 7.4869652 0
-3.9922283 12.048606 -1.6658318 0
-11.110443 33.186455 -0.98224032 0
-11.675422 34.718628 3.2250855 0
-11.674249 34.48283 5.7774591 0
-4.0715489 12.012665 -1.6613044 0
-6.8532939 20.025286 -1.9659576 0
-11.808893 34.268482 0.65970623 0
-11.148305 32.187706 3.8112643 0
-3.3590424 9.7077436 -1.5373578 0
-5.538085 15.84647 -1.8981955 0
-11.690598 33.19297 -0.16770279 0
-12.40542 35.054371 5.0083714 0
-11.861435 33.331032 7.3193245 0
-11.736538 32.827576 -0.16695759 0
-12.749534 35.483479 3.3079662 0
-12.325401 34.129116 6.6227403 0
-5.7065744 15.764669 -1.8943007 0
-12.224582 33.481655 -1.0098892 0
-12.536338 34.136696 3.1975827 0
-12.543146 33.977535 6.6108246 0
-5.815712 15.718552 -1.8949034 0
-12.160324 32.645775 0.64052439 0
-12.001146 32.047413 4.6288757 0
-4.4334078 11.838599 -1.6586001 0
-12.424541 32.871552 -0.17210326 0
-11.958228 31.486525 3.7673883 0
-12.585314 32.970646 7.2994733 0
-5.989327 15.646781 -1.8958843 0
-12.563245 32.582306 0.63943541 0
-12.409573 32.033947 4.6433244 0
-13.161445 33.788891 7.4884257 0
-12.704557 32.499157 -0.17169443 0
-13.835023 35.220695 4.1989231 0
-3.7307944 9.5233278 -1.5347677 0
-4.6415987 11.736286 -1.6549327 0
-12.833038 32.146046 -0.97590458 0
-13.915172 34.697979 2.4027209 0
-12.746572 31.628687 5.4233122 0
-13.924374 34.351147 7.649219 0
-13.041194 32.04427 -0.97731864 0
-14.436653 35.294342 3.3341813 0
-3.8597717 9.466857 -1.5355136 0
-14.376947 34.868507 -1.0908483 0
-13.29511 32.12439 3.873467 0
-14.060826 33.775204 6.666985 0
-7.7082167 18.470476 -1.8497231 0
-14.782546 35.215286 2.4478698 0
-14.265746 33.838413 6.6874948 0
-13.710052 32.327766 7.255898 0
-13.414118 31.506054 -0.96893239 0
-15.31471 35.794285 1.5790176 0
-14.547712 33.844616 5.8322659 0
-4.973774 11.577736 -1.6570672 0
-14.048898 32.40786 -0.18409714 0
-14.217199 32.636028 3.9585218 0
-14.83421 33.878643 6.7324109 0
-7.9945989 18.227678 -1.8428218 0
-15.63696 35.443089 2.474637 0
-4.1025481 9.3340483 -1.5322464 0
-14.578915 32.791576 -1.0301758 0
-15.834084 35.425308 1.5692387 0
-14.670965 32.667282 3.9784191 0
-14.7656 32.661495 3.9832845 0
-4.1867862 9.2880621 -1.5278283 0
-5.1762295 11.405432 -1.6442327 0
-8.2873888 18.114971 -1.8444152 0
-8.3021545 18.051361 -0.4501166 0
-15.079165 32.546406 0.63649905 0
-15.168723 32.530685 0.6362586 0
-16.369164 34.932659 2.4629714 0
-16.540232 35.091145 2.4746397 0
-15.443218 32.534569 -1.0390427 0
-7.1382265 14.980268 -1.8846443 0
-15.798696 32.730572 0.63792014 0
-8.8965998 18.219898 -1.8887429 0
-7.3211451 14.843438 -1.8763921 0
-4.5083365 9.0593824 -1.5207148 0
-4.5428486 9.0239506 -1.5161427 0
-9.3499632 18.201078 -1.909375 0
-7.6031098 14.640763 -1.873946 0
-5.785409 11.039122 -1.6389461 0
-9.7544012 18.262842 -1.9390097 0
-5.8889713 10.933027 -1.6352434 0
-4.820406 8.8709812 -1.5181158 0
-4.8549867 8.8406076 -1.5184914 0
-4.899653 8.8201466 -1.5187445 0
-8.0633297 14.326488 -1.8679721 0
-8.1125431 14.266046 -1.8687148 0
-8.1768723 14.220429 -1.8642712 0
-31.718533 54.428883 -2.0608692 0
-5.0578122 8.6884203 -1.5153694 0
-5.0923409 8.6530104 -1.5107888 0
-5.1320152 8.6326027 -1.5110521 0
-33.323299 54.877476 -2.1121707 0
-10.972166 17.922995 -1.9789619 0
-6.4269114 10.412481 -1.6115993 0
-11.195564 17.831245 -1.9851949 0
-6.5306621 10.321452 -1.6077198 0
-11.449324 17.779306 -1.9959702 0
-6.6141324 10.195604 -1.604207 0
-11.713267 17.747355 -2.0115414 0
-6.7026806 10.079677 -1.5955828 0
-5.5471311 8.2682171 -1.5004435 0
-12.122189 17.749369 -2.0368226 0
-9.1239281 13.241936 -1.831166 0
-6.8652644 9.8880787 -1.5878723 0
-5.700388 8.136651 -1.4970233 0
-6.954371 9.822279 -1.5886643 0
-5.7544713 8.0610533 -1.4929152 0
-30.27556 41.633663 11.683995 0
-30.660494 41.911423 1.9360778 0
-32.896568 44.73901 0.76175809 0
-13.018857 17.648035 -2.0935726 0
-7.1017456 9.6008062 -1.5762253 0
-9.462657 12.718967 -1.8073056 0
-7.1261516 9.5505352 -1.5718263 0
-5.9124107 7.8944631 -1.4898602 0
-31.998814 42.097477 1.9573078 0
-31.436016 41.167492 1.9220836 0
-13.527679 17.654547 -2.1288078 0
-9.6201534 12.512657 -1.7997313 0
-7.2341986 9.3844814 -1.5637562 0
-29.388288 37.627583 6.2582574 0
-29.709682 37.859913 6.3056974 0
-29.526985 37.293087 10.800007 0
-29.867846 37.529903 7.4268961 0
-7.3573847 9.2333231 -1.5554997 0
-6.1245818 7.6623359 -1.4825604 0
-38.501953 47.414291 -2.0565317 0
-7.4213276 9.1427259 -1.5515422 0
-31.671225 38.524879 10.097692 0
-9.8993912 12.010314 -1.7755277 0
-14.665306 17.682026 -2.2141268 0
-7.4949608 9.022049 -1.5479181 0
-29.832449 35.466671 9.3990936 0
-29.505215 34.936218 10.383265 0
-6.2519851 7.430913 -1.4651748 0
-6.2618036 7.4158144 -1.4653655 0
-34.149197 39.807861 0.70503032 0
-18.412693 21.387815 -2.1243246 0
-14.970921 17.315035 -2.2083845 0
-31.902403 36.559723 9.820343 0
-18.74679 21.37071 -2.1396451 0
-29.559208 33.420025 9.0511475 0
-36.210552 40.706295 7.0792866 0
-15.147026 16.963942 -2.197381 0
-32.427597 35.983501 10.973674 0
-28.806412 31.825047 8.7136106 0
-6.4085636 7.119175 -1.4436871 0
-35.650909 38.970268 -0.53012133 0
-37.019981 40.317368 7.1045275 0
-19.326426 20.957388 -2.154526 0
-35.420597 38.202797 0.68641728 0
-19.490971 20.946411 -2.1647179 0
-36.01379 38.498829 1.9144849 0
-33.495766 35.645344 4.0787683 0
-33.324944 35.317883 5.1851826 0
-33.388947 35.227707 5.1841455 0
-35.42392 37.17918 -0.51505172 0
-15.579585 16.306328 -2.1798773 0
-35.811859 37.226665 -1.7296548 0
-35.810356 37.076897 -1.7263803 0
-35.944672 37.031193 -1.7318876 0
-15.692598 16.125685 -2.1768978 0
-6.6301956 6.8120875 -1.4370785 0
-31.408005 31.817646 7.9670644 0
-35.715473 35.985424 1.8366652 0
-34.440434 34.558086 5.2013564 0
-35.062119 35.019375 7.6213579 0
-35.210983 34.996685 4.1209726 0
-35.628242 35.280228 7.7040167 0
-32.734158 32.263077 8.1766024 0
-6.7286205 6.6661325 -1.4286752 0
-8.1338081 8.0114365 -1.5092289 0
-33.623409 32.696865 9.4716158 0
-15.936095 15.5044 -2.1537833 0
-33.589802 32.498203 0.62372619 0
-36.053593 34.72316 5.3177314 0
-6.7826204 6.57061 -1.4247166 0
-33.728874 32.212929 9.4162359 0
-8.2022886 7.865829 -1.500829 0
-8.2170372 7.8407178 -1.501091 0
-10.664204 10.114311 -1.6767002 0
-36.461346 34.318737 0.64304298 0
-34.443104 32.265194 1.716042 0
-34.540062 32.227257 8.3857794 0
-6.8410673 6.4149909 -1.4163815 0
-8.2657166 7.710269 -1.4925028 0
-8.2653818 7.67523 -1.4878806 0
-10.727084 9.9038506 -1.6639967 0
-38.049397 34.827782 -1.7567289 0
-37.503979 34.195461 4.1915979 0
-38.696381 35.110386 1.8663265 0
-37.762856 34.129192 4.2007985 0
-38.636837 34.747623 4.2824345 0
-39.501633 35.344215 -1.8163507 0
-39.630978 35.298622 -1.8218665 0
-23.024397 20.426737 -2.3762491 0
-31.903227 28.079397 11.716436 0
-36.687435 32.239151 -1.6547318 0
-38.104168 33.336674 0.63206047 0
-36.689648 31.939606 -1.6479539 0
-32.072063 27.711676 12.74748 0
-34.291626 29.502016 15.90673 0
-36.031528 30.949751 -1.608642 0
-16.44169 14.082101 -2.0992866 0
-31.693586 26.885704 11.458536 0
-16.485786 13.99193 -2.1002579 0
-31.714243 26.654459 10.386014 0
-38.737411 32.392982 11.367554 0
-39.238731 32.658943 11.490405 0
-16.558859 13.796624 -2.0923436 0
-38.783867 31.98432 11.313158 0
-10.989073 9.0871401 -1.6277362 0
-24.443722 20.064571 -2.4552548 0
-16.596771 13.576572 -2.0846922 0
-37.876915 30.775467 -1.6705763 0
-37.965401 30.702955 0.60372591 0
-38.020168 30.610035 -1.6723549 0
-38.023262 30.478174 0.6012851 0
-38.132557 30.417719 0.60066235 0
-40.884426 32.467278 5.4927278 0
-40.918285 32.342472 5.4864006 0
-38.150482 30.018112 3.9914851 0
-36.183666 28.34235 5.948617 0
-36.267975 28.277113 5.9479251 0
-38.807381 30.110733 5.1825423 0
-38.427628 29.669485 1.7177517 0
-16.624603 12.796925 -2.0379324 0
-25.240723 19.316385 -2.478157 0
-25.375671 19.330725 -2.4930031 0
-25.445208 19.290403 -2.4934182 0
-25.474504 19.215361 -2.4941897 0
-33.658455 25.173872 10.515274 0
-16.60631 12.43228 -2.0117981 0
-16.625853 12.382222 -2.0123031 0
-36.906464 27.329622 4.8528471 0
-8.6434937 6.4319549 -1.4209886 0
-11.226627 8.2957869 -1.5960138 0
-11.231337 8.2657452 -1.5913438 0
-16.558393 12.097799 -1.9902883 0
-40.080116 29.097404 1.7368118 0
-36.719902 26.547428 6.9296441 0
-8.6923904 6.3116016 -1.4172096 0
-11.245 8.1156874 -1.5828905 0
-26.5261 18.990473 -2.5614371 0
-26.555445 18.920443 -2.5621648 0
-37.454109 26.559088 4.8448267 0
-36.943165 26.065672 5.8346229 0
-8.7313013 6.1913209 -1.4134418 0
-34.543766 24.15304 10.529673 0
-16.619196 11.63289 -1.9701321 0
-16.618673 11.572933 -1.9657423 0
-16.618185 11.517976 -1.9613149 0
-16.617701 11.46302 -1.9568868 0
-37.917152 25.871075 11.44331 0
-16.631851 11.368079 -1.9578867 0
-27.527201 18.686102 -2.6244068 0
-11.316047 7.6703873 -1.5624596 0
-27.837055 18.709581 -2.6490774 0
-42.033367 28.10841 4.1118975 0
-38.657967 25.624573 16.246025 0
-42.311096 28.004282 -1.789233 0
-41.896549 27.597366 5.2516413 0
-40.125645 26.307859 6.1628652 0
-35.524464 23.186142 8.5248346 0
-11.348992 7.4352598 -1.5498508 0
-11.33862 7.3903208 -1.5453057 0
-28.985943 18.729141 -2.7385607 0
-40.018959 25.714609 0.55159461 0
-40.6675 26.011063 6.1949577 0
-7.3605099 4.7395663 -1.318699 0
-35.461548 22.477247 9.4525099 0
-16.569551 10.514174 -1.9016306 0
-40.180344 25.304897 0.54746121 0
-40.14917 25.160437 0.54596984 0
-43.698563 27.250828 6.5836549 0
-40.515442 25.139128 8.3860788 0
-8.8806305 5.5401759 -1.3799735 0
-38.847786 23.877377 10.233036 0
-37.888618 23.170719 9.9754877 0
-35.316788 21.490219 10.312457 0
-43.923145 26.694799 -1.8321166 0
-43.987209 26.589737 -1.8331306 0
-41.016762 24.680239 -0.56862032 0
-41.193871 24.661789 0.54128802 0
-43.428291 25.868546 4.0894589 0
-41.583214 24.629999 0.54115975 0
-16.437933 9.7106714 -1.8497553 0
-41.571171 24.380777 0.53861153 0
-42.892181 25.028984 4.0207734 0
-42.439125 24.64588 8.6118183 0
-38.15469 22.049109 9.8892698 0
-16.471416 9.530694 -1.8415284 0
-42.555588 24.430964 0.53959411 0
-43.450001 24.831907 4.0440388 0
-45.229485 25.703642 6.6286697 0
-8.9521408 5.1196527 -1.3590927 0
-38.762157 21.811802 9.9722052 0
-37.946491 21.241556 10.821146 0
-11.480682 6.444881 -1.4996352 0
-38.451252 21.293507 10.931929 0
-16.448133 9.1262808 -1.8205385 0
-8.9709311 4.9695082 -1.3505369 0
-8.9757347 4.9444852 -1.3507723 0
-8.9905701 4.9243999 -1.3509513 0
-16.39097 8.851881 -1.8032479 0
-11.513387 6.1598516 -1.4873892 0
-11.512882 6.0949159 -1.4880217 0
-11.522368 6.0298867 -1.4836297 0
-11.531887 5.9698567 -1.479202 0
-9.0433187 4.6390657 -1.3386455 0
-9.0580006 4.5989919 -1.3390254 0
-7.6231432 3.8323028 -1.287334 0
-16.234173 7.9737263 -1.7517951 0
-9.0766697 4.4238706 -1.3306429 0
-16.162182 7.7093687 -1.7293384 0
-9.1058388 4.3137383 -1.3316519 0
-16.095284 7.4550104 -1.7117792 0
-9.1199389 4.193634 -1.3227473 0
-16.048512 7.215559 -1.6990509 0
-9.1290331 4.068593 -1.3188707 0
-15.996734 6.9711347 -1.686339 0
-9.1381969 3.9535532 -1.3149203 0
-15.955069 6.7416477 -1.6734835 0
-9.1473341 3.8334835 -1.3059877 0
-15.893358 6.5022421 -1.6557047 0
-9.1464643 3.708504 -1.3020952 0
-15.861777 6.2777238 -1.6477478 0
-9.1456261 3.5884941 -1.2931576 0
-15.820239 6.0582271 -1.6347526 0
-9.1548386 3.473459 -1.2891566 0
-15.768665 5.8287854 -1.6218157 0
-9.1390066 3.3485646 -1.2852548 0
-15.692107 5.5994473 -1.6038997 0
-9.1181679 3.2236369 -1.2713481 0
-15.625637 5.3800778 -1.5908777 0
-9.0923519 3.0987656 -1.2624382 0
-9.0670004 3.0438924 -1.2579281 0
-15.593721 5.0906582 -1.5783824 0
-9.0412025 2.919018 -1.2489961 0
-15.542367 4.881227 -1.5702142 0
-9.0154438 2.7991421 -1.2400228 0
-15.491022 4.6717644 -1.557024 0
-8.9947233 2.6842377 -1.2309966 0
-15.424673 4.457376 -1.5438641 0
-8.9789991 2.5643344 -1.2269763 0
-15.383433 4.2578816 -1.5355501 0
-8.9583025 2.4494278 -1.2179248 0
-15.287155 4.0486379 -1.522368 0
-11.095684 2.8939657 -1.2967459 0
-7.5605106 1.9463323 -1.1686552 0
-15.155386 3.7546475 -1.4998724 0
-8.9167175 2.1796293 -1.2001003 0
-7.5347419 1.8113725 -1.1597279 0
-11.023706 2.5545635 -1.2794904 0
-7.519206 1.7163702 -1.1504679 0
-11.007919 2.4147568 -1.2755731 0
-8.8602066 1.9099261 -1.1872295 0
-14.761342 3.0573771 -1.4407841 0
-10.956859 2.2251239 -1.2620801 0
-10.926532 2.1653008 -1.2575625 0
-8.809123 1.7101649 -1.1737806 0
-8.7888813 1.6652513 -1.1691377 0
-7.4524207 1.3814932 -1.1330266 0
-8.7734375 1.5803282 -1.1647766 0
-10.82506 1.8909576 -1.2397166 0
-10.809795 1.8410577 -1.2351049 0
-14.39259 2.3699896 -1.3913738 0
-14.362221 2.3002284 -1.3869236 0
-14.301825 2.2255819 -1.3775456 0
-14.231417 2.1460052 -1.3732054 0
-14.181026 2.0713077 -1.3638026 0
-14.125647 1.996657 -1.3594041 0
-14.085293 1.9269359 -1.3549533 0
-60.428074 7.9037318 1.8315698 0
-8.6311827 1.1309558 -1.1331249 0
-13.984418 1.7526118 -1.3413073 0
-13.939067 1.6828825 -1.3318505 0
-13.898727 1.6131539 -1.3273823 0
-13.848389 1.5434775 -1.3229306 0
-20.016439 2.1271474 -1.5602431 0
-59.063633 5.9573026 1.7810167 0
-10.440872 1.0482061 -1.1761012 0
-13.682237 1.3045124 -1.2997757 0
-13.641912 1.2347829 -1.2952901 0
-13.586611 1.170118 -1.2908005 0
-13.546313 1.1053865 -1.2862849 0
-13.511019 1.0406307 -1.281757 0
-19.242867 1.3819308 -1.4863175 0
-7.2333851 0.52189201 -1.0741265 0
-10.279222 0.67918104 -1.153724 0
-63.669018 3.8083777 4.8531499 0
-10.238895 0.60438198 -1.1442484 0
-64.052193 3.3935678 4.8760009 0
-18.851 0.96942973 -1.4495325 0
-18.795609 0.87985998 -1.4451742 0
-7.1876388 0.33697945 -1.0653217 0
-10.163132 0.41985178 -1.1355033 0
-10.152934 0.36994228 -1.1358149 0
-13.1033 0.41323194 -1.2362834 0
-18.458931 0.48709744 -1.4180865 0
-8.297205 0.21240702 -1.0744432 0
-10.087304 0.21033378 -1.1268643 0
-62.031254 0.87618119 1.8122895 0
-32.739506 0.39720005 -1.9629829 0
-7.136704 0.087055437 -1.056846 0
-18.162371 0.10411623 -1.3907967 0
-8.2415733 0.042636927 -1.0655003 0
-9.9915085 0.00086249097 -1.1132081 0
-22.449848 -0.12749889 -0.21094632 0
-17.926416 -0.13941087 -1.3725553 0
-62.315746 -0.82926154 -2.5424762 0
-7.0710974 -0.087797076 -1.0479124 0
-8.1909075 -0.14715633 -1.0566204 0
-17.209238 -0.40458333 -0.5050832 0
-17.254639 -0.44796893 -0.90526044 0
-12.710381 -0.35405207 -1.1962676 0
-62.700893 -2.1207585 -2.5692978 0
-8.1554794 -0.27700832 -1.0523649 0
-9.9001827 -0.38344672 -1.1054436 0
-12.519695 -0.54808289 -1.1725852 0
-62.962276 -3.127852 -2.5895035 0
-8.1300955 -0.40188223 -1.0530531 0
-12.434232 -0.6875627 -1.1634376 0
-8.1049051 -0.46179593 -1.0483873 0
-65.563766 -4.1346345 4.943819 0
-65.598289 -4.284102 4.9430704 0
-9.203804 -0.60775554 -0.572577 0
-6.9399157 -0.46757549 -1.0250493 0
-9.3426447 -0.69119608 3.9472523 0
-63.406284 -4.8877668 -2.6232371 0
-9.3834791 -0.73835123 3.2270718 0
-9.3000298 -0.73337573 2.0469716 0
-9.3593512 -0.76039535 2.5169265 0
-9.3064213 -0.75894779 0.94182968 0
-8.0793381 -0.66166073 -1.0494076 0
-9.3072081 -0.78134161 0.28671783 0
-6.8996134 -0.57750434 -1.0206298 0
-9.2927065 -0.80455577 -0.14841476 0
-9.2912626 -0.82377851 0.94149864 0
-8.0191946 -0.71147245 -1.0397274 0
-9.0731964 -0.82710081 -0.56382728 0
-9.078145 -0.84709895 -0.56391668 0
-9.0383701 -0.86610591 -0.77906072 0
-9.2476654 -0.92841214 -0.36406419 0
-7.9689131 -0.81631446 -1.0302845 0
-9.2125206 -0.98821849 -0.36438915 0
-9.0980377 -0.99619716 -0.78458393 0
-6.8891373 -0.76756668 -1.0215129 0
-9.1475945 -1.0671099 -0.57483554 0
-7.9236007 -0.94115758 -1.0259067 0
-61.40263 -7.689486 -2.5599005 0
-6.8039389 -0.85236138 -1.0119954 0
-9.4977236 -1.2413906 -1.0601474 0
-6.9617758 -0.9339143 0.6128729 0
-6.9419513 -0.94823122 0.44778624 0
-6.9471259 -0.96263659 0.28273004 0
-6.862134 -0.96734411 0.28260174 0
-6.9120746 -0.99250567 0.2825624 0
-6.9068565 -1.0080619 0.44249296 0
-6.7618995 -1.0025709 0.44233146 0
-6.8579655 -1.0343884 -0.52768278 0
-12.060944 -1.8893474 -1.1445903 0
-16.988409 -2.7498 -1.3168793 0
-16.968239 -2.824548 -1.3172201 0
-16.928089 -2.8942339 -1.3175622 0
-16.922924 -2.9690344 -1.3178781 0
-16.907747 -3.0488029 -1.3182193 0
-54.606602 -10.139995 -2.2846913 0
-7.7325625 -1.4405392 -1.0131955 0
-11.960096 -2.2933941 -1.1413431 0
-64.099792 -12.64624 1.8220619 0
-9.1865168 -1.8249987 -1.0328991 0
-16.806965 -3.4275932 -1.3148296 0
-7.6523476 -1.5703219 -1.0037671 0
-16.766762 -3.537199 -1.3152924 0
-7.6272674 -1.6202627 -0.99897301 0
-11.854572 -2.5826237 -1.1375468 0
-54.247364 -12.121406 -2.2929261 0
-7.58216 -1.7001299 -0.99930012 0
-11.819349 -2.7173107 -1.1380647 0
-54.246082 -12.774052 -2.305335 0
-7.5370545 -1.7800175 -0.99461687 0
-11.764149 -2.8469601 -1.1335711 0
-16.605787 -4.1003962 -1.3124896 0
-16.580671 -4.1751456 -1.31277 0
-16.615522 -4.2650537 -1.3180319 0
-16.62039 -4.3498755 -1.3233054 0
-6.4775701 -1.7020576 -0.98547173 0
-6.452549 -1.7270267 -0.98057032 0
-6.4425197 -1.7570233 -0.98066759 0
-6.432507 -1.7820208 -0.98074841 0
-6.4174809 -1.8120046 -0.98084784 0
-6.3974643 -1.8369901 -0.9759357 0
-6.3724489 -1.8619627 -0.97102702 0
-7.3466511 -2.1845832 -0.98102355 0
-7.3266354 -2.214536 -0.98112249 0
-7.3116217 -2.244503 -0.981215 0
-7.3015952 -2.2794838 -0.98131573 0
-7.2815785 -2.309453 -0.97640979 0
-7.256568 -2.3393958 -0.97650683 0
-8.7802973 -2.8781939 -1.0215988 0
-11.333192 -3.7744021 -1.1217413 0
-11.303169 -3.8192666 -1.1168791 0
-11.283129 -3.8741443 -1.117033 0
-11.258116 -3.9190109 -1.1171615 0
-47.897045 -16.9517 -2.0947721 0
-7.1415081 -2.5391929 -0.9670682 0
-16.118914 -5.8251305 -1.3229358 0
-7.1314988 -2.5891707 -0.97218394 0
-16.00392 -5.9046292 -1.3132092 0
-6.1223602 -2.2668226 -0.95218158 0
-8.5702162 -3.2225096 -1.0125539 0
-15.828916 -6.0488324 -1.3036637 0
-6.0673809 -2.3267837 -0.94733512 0
-8.5252047 -3.3173726 -1.0077785 0
-15.658938 -6.1880641 -1.2940792 0
-8.5001993 -3.3772883 -1.0079129 0
-58.250248 -23.47423 4.6578407 0
-10.997987 -4.4576421 -1.1135122 0
-5.9824376 -2.4367421 -0.94257963 0
-49.70628 -20.567141 0.2682986 0
-10.96298 -4.5624208 -1.1137266 0
-6.9315753 -2.8988616 -0.95789194 0
-15.339043 -6.5064855 -1.2798799 0
-6.8816171 -2.9337809 -0.95297146 0
-15.234091 -6.5910296 -1.2750872 0
-8.350297 -3.6268294 -1.0034192 0
-5.8975291 -2.576741 -0.93783391 0
-15.119169 -6.7004824 -1.2703251 0
-5.8675632 -2.6117382 -0.93289387 0
-10.798082 -4.8716264 -1.109316 0
-5.8426037 -2.6467357 -0.93294704 0
-52.327129 -24.047617 1.5984063 0
-38.972023 -18.037504 -1.7379129 0
-10.728154 -4.9863153 -1.1095088 0
-6.7667694 -3.1636381 -0.9533391 0
-14.814399 -7.0190506 -1.2559388 0
-5.7427325 -2.7316926 -0.92307937 0
-8.1605139 -3.9313128 -0.99891353 0
-50.728142 -24.696207 9.5318041 0
-10.598304 -5.1957774 -1.1048257 0
-5.7427869 -2.8267882 -0.92817879 0
-10.553374 -5.2605963 -1.1049099 0
-6.6469665 -3.3335075 -0.9485569 0
-14.464789 -7.3375297 -1.2414393 0
-6.627018 -3.3784957 -0.94860089 0
-5.687901 -2.916811 -0.92827189 0
-14.34494 -7.4420366 -1.2365788 0
-5.6579685 -2.9468114 -0.92829406 0
-7.9658451 -4.2008686 -0.98922443 0
-40.006161 -21.355972 -1.8519766 0
-5.6130662 -3.0068352 -0.9233402 0
-6.5122566 -3.5283995 -0.94372869 0
-14.07534 -7.7158909 -1.2268733 0
-5.5881586 -3.0768783 -0.92838466 0
-10.248914 -5.7094655 -1.1003677 0
-50.265171 -28.25071 9.7326632 0
-5.5282855 -3.1268852 -0.92340469 0
-5.508337 -3.1469016 -0.91840768 0
-5.5033703 -3.1819248 -0.92342758 0
-5.4784303 -3.1969342 -0.9184227 0
-5.4584789 -3.2219434 -0.91843081 0
-5.4435277 -3.2469616 -0.91843486 0
-5.4235859 -3.2669725 -0.91843176 0
-5.4036384 -3.291985 -0.91843522 0
-5.3837032 -3.3070056 -0.91342163 0
-5.3787446 -3.3420331 -0.91843104 0
-5.3588061 -3.3620474 -0.91842294 0
