# .PCD v0.7 - Point Cloud Data file format
VERSION 0.7
FIELDS x y z intensity
SIZE 4 4 4 4
TYPE F F F F
COUNT 1 1 1 1
WIDTH 1400
HEIGHT 1
VIEWPOINT 0 0 0 1 0 0 0
POINTS 1400
DATA ascii
10.916182 19.301289 -1.6842456 0
11.561548 20.419918 3.1270134 0
11.418888 20.206684 5.8859816 0
11.010942 19.586504 1.952533 0
11.265374 20.062737 5.2753205 0
11.87626 21.271471 0.39202708 0
10.875871 19.479292 4.5821843 0
11.388857 20.533852 -0.70694542 0
12.133787 21.886103 3.9106791 0
10.91923 19.839937 -2.2606647 0
11.837043 21.497732 2.10864 0
11.233619 20.431168 5.3428392 0
11.422819 20.925259 -0.16438922 0
10.980782 20.113146 3.606122 0
10.898897 20.020533 5.7857652 0
11.705359 21.609539 2.1096435 0
10.725203 19.927996 -3.3247221 0
11.068323 20.621164 -0.70073044 0
10.84103 20.222683 2.5271127 0
11.160987 20.85359 5.415791 0
11.529523 21.687876 0.39548242 0
10.563258 19.97805 -3.8640764 0
10.428768 19.77928 -1.6951007 0
10.825462 20.521841 2.5541263 0
10.665446 20.244816 5.8077097 0
11.242977 21.46817 1.5245912 0
10.810737 20.656202 5.3451576 0
10.820232 20.830141 -0.70386767 0
10.698957 20.62381 2.5550458 0
10.265975 19.844761 4.5958023 0
11.145673 21.706264 -1.308695 0
11.720696 22.906078 0.40318558 0
11.059085 21.70862 1.5315286 0
10.999023 21.722225 1.5317367 0
12.056359 23.953379 1.0294911 0
11.384827 22.753412 0.40280199 0
10.2751 20.682402 -0.68382359 0
10.517524 21.239239 6.0095739 0
9.7913361 19.909027 4.5671115 0
10.452504 21.460957 2.0660298 0
10.192057 21.120167 -0.69578087 0
10.333777 21.474672 6.041461 0
9.7032766 20.445387 -0.13432735 0
11.306993 24.066015 1.0265943 0
11.059908 23.960466 1.0213399 0
2.8034191 6.4116068 -0.66912651 0
2.7635119 6.463285 -0.34371057 0
2.7333455 6.4775696 -0.34355989 0
20.01861 47.978603 -1.8672223 0
2.6869023 6.5376372 -0.51308405 0
19.491005 48.231541 -1.8697319 0
2.6207623 6.587213 -0.67764723 0
18.304228 47.789883 -1.8306971 0
10.753856 39.448971 -1.3933855 0
8.9776115 40.182362 4.3588648 0
-8.1962585 37.337849 3.1894124 0
-7.3827119 31.959915 4.3100929 0
-7.5087156 31.87331 5.0846186 0
-9.5651159 39.975857 0.53176165 0
-7.6903429 32.010201 5.1105685 0
-8.1419716 32.831413 3.640985 0
-8.8820171 34.493301 4.6568575 0
-10.160099 38.704468 4.2590661 0
-9.7511177 36.91103 7.7127347 0
-9.2263346 34.54269 4.6723433 0
-10.336987 38.463257 9.9678497 0
-9.2339716 33.973175 5.4437599 0
-10.52108 38.460312 9.9779186 0
-11.376057 41.286217 0.54095805 0
-9.704855 35.074436 6.4809647 0
-9.9996405 35.464401 4.808567 0
-9.5395823 33.218208 2.9041557 0
-9.4364891 32.696682 6.9009805 0
-10.929502 37.619656 -1.307404 0
-10.252868 35.155659 4.7767425 0
-11.044664 37.387794 -1.2988098 0
-9.8206654 33.073818 2.898385 0
-10.731991 35.887188 5.7716146 0
-12.620315 41.405514 1.5473416 0
-9.706934 31.672573 4.3494987 0
-9.7929468 31.757292 6.7452345 0
-12.23203 39.414043 -1.3954265 0
-12.604164 40.375488 2.5058508 0
-11.505804 36.609573 4.0915532 0
-13.983269 44.067909 1.6348265 0
-14.082245 44.036369 1.6346753 0
-15.602951 48.367397 0.58776093 0
-13.885402 42.68301 -1.5389782 0
-10.954453 33.341866 7.9558558 0
-11.034213 33.350601 7.9659352 0
-11.061201 33.190437 7.9349318 0
-12.582543 37.454723 -5.0276399 0
-10.890517 32.16943 6.8884001 0
-12.755466 37.381996 -5.0279956 0
-11.299914 32.897186 7.8882103 0
-11.893106 34.300728 5.6022024 0
-12.063367 34.522781 4.7686825 0
-12.028382 33.994038 7.2954955 0
-12.290495 34.419365 4.7681446 0
-11.924064 33.002342 7.954185 0
-12.150802 33.153599 8.0002575 0
-12.705361 33.853405 3.8697793 0
-39.788914 47.887569 -2.3002262 0
-39.441196 41.967323 -2.1218274 0
-43.785591 42.345325 -2.2718539 0
-49.166821 37.982574 -2.3479495 0
-17.935825 13.030033 -3.8051283 0
-16.684309 11.667975 -3.4747734 0
-15.58553 10.43306 -3.1780891 0
-14.679211 9.350564 -2.9302313 0
-14.053647 8.644125 -2.7649167 0
-56.611774 33.223221 -2.5343852 0
-55.789402 31.398678 -2.4705973 0
-12.445029 6.7165513 -2.3375053 0
-11.991901 6.1629415 -2.2160828 0
-11.798509 5.9306526 -2.1625819 0
-11.609759 5.6734233 -2.1142075 0
-11.436679 5.4608626 -2.0655653 0
-15.403671 7.1326938 -2.4566896 0
-11.065206 5.0111284 -1.968437 0
-60.0313 26.318611 2.0113909 0
-62.89439 27.066128 5.2889571 0
-10.602336 4.4576902 -1.851949 0
-10.40927 4.2403927 -1.8033364 0
-13.533688 5.3581085 -2.0684555 0
-10.170261 3.9537976 -1.7451334 0
-10.073612 3.8351767 -1.7208693 0
-9.9720345 3.721611 -1.6965896 0
-18.511072 6.7501206 -2.434751 0
-55.229317 19.845274 -2.2839901 0
-9.773901 3.4944 -1.6480106 0
-17.628031 6.156456 -2.2939653 0
-12.328418 4.2494655 -1.8257549 0
-9.5705833 3.2523177 -1.5995102 0
-16.77002 5.5625687 -2.158139 0
-9.418294 3.0844507 -1.5605615 0
-54.202801 17.286423 1.756521 0
-57.62394 18.072807 -2.3699291 0
-15.856194 4.9044857 -2.0076909 0
-57.500629 17.456812 -2.3582118 0
-53.850281 15.976295 1.7344062 0
-11.265564 3.2938762 -1.6219842 0
-15.063441 4.3198738 -1.8816772 0
-14.79105 4.138413 -1.8429527 0
-10.891271 2.9688959 -1.5490922 0
-14.331606 3.7994471 -1.7702482 0
-10.613242 2.7375913 -1.4956001 0
-8.5207748 2.1419244 -1.3564168 0
-8.4446878 2.0579751 -1.3369203 0
-8.3286104 1.9744884 -1.317485 0
-8.2927227 1.9050986 -1.3078616 0
-10.01163 2.2256804 -1.3838941 0
-8.1257067 1.7473402 -1.2688353 0
-18.566074 3.804745 -1.8942387 0
-9.6680689 1.9452529 -1.3206971 0
-17.585918 3.3965068 -1.7775555 0
-9.51122 1.7973996 -1.2916014 0
-17.585754 3.19116 -0.098497748 0
-17.509668 3.1024098 -0.099025041 0
-17.448467 3.0034637 -0.094563365 0
-9.2384682 1.5760391 -1.2430089 0
-9.162797 1.5220186 -1.2283647 0
-7.5941901 1.2246492 -1.1569908 0
-11.445736 1.7621098 -1.3289483 0
-7.4979901 1.1260035 -1.1375725 0
-11.203698 1.5952435 -1.2900488 0
-7.3867393 1.0224992 -1.1131905 0
-10.951746 1.4334818 -1.2561362 0
-7.2855639 0.92388588 -1.0937669 0
-10.699863 1.2766603 -1.217183 0
-7.1844025 0.82525384 -1.0743295 0
-10.428058 1.1250309 -1.1782296 0
-7.0833635 0.7366116 -1.0548512 0
-10.211383 0.98278189 -1.1441473 0
-6.9822721 0.64293945 -1.0303856 0
-9.9998426 0.85047209 -1.1150134 0
-6.8812542 0.55427557 -1.0108975 0
-9.7983713 0.72303212 -1.0858393 0
-6.7903075 0.47050819 -0.99637175 0
-9.6069212 0.59547746 -1.0616422 0
-6.7244234 0.3914606 -0.98178673 0
-6.674036 0.35708594 -0.9719981 0
-16.72443 0.76544172 -1.255298 0
-16.223206 0.66099429 -1.2114658 0
-15.957323 0.58407992 -1.1871769 0
-15.716396 0.50190461 -1.167866 0
-6.4722919 0.1996731 -0.93291593 0
-6.466979 0.16984184 -0.93303895 0
-6.446661 0.14015114 -0.92818344 0
-6.4113455 0.11061835 -0.92334938 0
-6.4260354 0.080573 -0.92344129 0
-6.3507094 0.051425453 -0.90866482 0
-6.3103981 0.021940872 -0.90383613 0
-6.2950869 -0.0078066797 -0.89897037 0
-6.2548304 -0.032294549 -0.89412344 0
-6.2095156 -0.061748527 -0.88430011 0
-6.1492033 -0.091048084 -0.87449789 0
-6.1639552 -0.11609702 -0.87456942 0
-6.1436582 -0.14578177 -0.87470794 0
-6.9681387 -0.19926499 -0.85867631 0
-8.1624765 -0.27146617 -0.86216486 0
-12.880516 -0.49477622 -0.91097021 0
-6.0226979 -0.23925349 -0.85022712 0
-8.0215712 -0.35970935 -0.84269714 0
-12.534204 -0.62069839 -0.87695432 0
-12.39866 -0.67409253 -0.86735117 0
-12.26816 -0.72256309 -0.85272264 0
-12.147721 -0.76612514 -0.8430618 0
-12.027233 -0.81469226 -0.83341622 0
-11.911748 -0.86331546 -0.82376206 0
-11.821262 -0.91219664 -0.81407118 0
-5.7955651 -0.45622346 -0.81132793 0
-9.287528 -0.77634698 -0.80232203 0
-5.75524 -0.49068716 -0.80650616 0
-9.1620026 -0.82986957 -0.78769445 0
-5.7149162 -0.52515453 -0.80168307 0
-14.645308 -1.4268955 -0.046744376 0
-11.244229 -1.1204132 -0.76566041 0
-6.3687372 -0.64659345 -0.77114391 0
-8.8808832 -0.94655579 -0.75851154 0
-14.91911 -1.6614184 -0.75717223 0
-6.2881389 -0.71056384 -0.75647712 0
-8.7051525 -1.0244569 -0.73903513 0
-14.338118 -1.7650378 -0.71837962 0
-6.2125545 -0.77457756 -0.74679971 0
-8.5294304 -1.1023791 -0.71955311 0
-13.732385 -1.8434781 -0.67953062 0
-7.0108204 -0.95725793 -0.71125627 0
-13.476813 -1.905616 -0.66011107 0
-6.081718 -0.86793101 -0.72729409 0
-8.2333765 -1.2189417 -0.69036639 0
-34.061478 -5.2283502 -1.2966021 0
-8.1429882 -1.2628634 -0.68063951 0
-5.3371024 -0.83535224 -0.73824632 0
-8.0426521 -1.3016944 -0.67090893 0
-12.595098 -2.100754 -0.60702991 0
-5.925612 -0.99591106 -0.70792508 0
-7.8870597 -1.3698819 -0.65134871 0
-5.2313819 -0.91904712 -0.7186569 0
-7.7967777 -1.4038266 -0.64158452 0
-5.1961374 -0.94859707 -0.71379721 0
-9.4333801 -1.7693611 -0.61044312 0
-5.7548299 -1.0889019 -0.68345344 0
-11.748514 -2.2913258 -0.55384672 0
-6.4830904 -1.2757968 -0.64801908 0
-13.306953 -2.703496 5.2370672 0
-9.1475925 -1.8660883 -0.58614767 0
-6.4077349 -1.319885 -0.63825822 0
-19.416935 -4.1177354 -0.6338805 0
-8.9921751 -1.9193002 -0.57652843 0
-6.3323832 -1.3639798 -0.62849522 0
-5.0149918 -1.0913341 -0.68947542 0
-11.022173 -2.4632394 -0.50539792 0
-7.2898469 -1.6428478 -0.59302652 0
-6.2469177 -1.4229306 -0.618788 0
-5.5134158 -1.265919 -0.64931583 0
-4.939569 -1.1454322 -0.67473495 0
-10.716571 -2.5447917 -0.48606732 0
-8.5861006 -2.0596738 -0.54251158 0
-6.1364827 -1.4816056 -0.60910952 0
-5.4229693 -1.3248323 -0.6396085 0
-4.854207 -1.1944336 -0.66498911 0
-13.206553 -3.3242321 1.8749896 0
-13.256606 -3.3686147 1.5599227 0
-13.216856 -3.392154 1.2397966 0
-13.251526 -3.4323471 1.2447236 0
-13.211352 -3.4568202 1.2395964 0
-4.7987595 -1.2537211 -0.65522969 0
-4.7887335 -1.2585908 -0.65525579 0
-5.2923546 -1.4082848 -0.62001812 0
-5.2822852 -1.4181486 -0.62005889 0
-5.2622552 -1.4229362 -0.61509788 0
-4.7434888 -1.2930403 -0.65040994 0
-32.267052 -9.0093384 1.0738151 0
-32.266438 -9.088974 1.0735775 0
-32.186058 -9.1428671 1.0683092 0
-32.115631 -9.201869 1.0680399 0
-13.005434 -3.750603 0.28345466 0
-12.970677 -3.7742343 -0.031661093 0
-11.933475 -3.5039287 -0.29725513 0
-9.5247393 -2.8216689 -0.41347435 0
-6.5975366 -1.9647923 -0.52487469 0
-5.0915065 -1.5309318 -0.59561372 0
-9.3445263 -2.8597035 -0.40381536 0
-5.7045293 -1.7564217 -0.56044543 0
-11.363297 -3.5579157 -0.2731519 0
-6.4520497 -2.0381179 -0.5102607 0
-4.5424833 -1.4406555 -0.62105989 0
-7.4787264 -2.4172676 -0.45498702 0
-4.9560118 -1.6093512 -0.58098972 0
-22.693905 -7.5178661 -0.26956663 0
-8.923872 -2.9750376 -0.37966952 0
-6.3065667 -2.1163969 -0.50065088 0
-4.8957238 -1.6536448 -0.57117856 0
-20.13942 -6.9242425 -0.2112028 0
-8.7685385 -3.0332625 -0.37002 0
-6.1863508 -2.1550999 -0.4858999 0
-4.8354912 -1.692932 -0.56635094 0
-18.422842 -6.568213 -0.17240933 0
-8.5733414 -3.0761578 -0.36037496 0
-6.0911064 -2.1990082 -0.48112819 0
-4.7603011 -1.7271094 -0.55652595 0
-15.515323 -5.7320724 -0.10380504 0
-8.3981457 -3.1192605 -0.34570035 0
-5.995862 -2.2429395 -0.47135344 0
-4.7050705 -1.7664673 -0.54668725 0
-13.978938 -5.3430519 -0.069670647 0
-8.2329197 -3.1674488 -0.34102026 0
-6.7976203 -2.6298048 -0.40136972 0
-5.88061 -2.291666 -0.46160635 0
-5.1629987 -2.0203214 -0.50177228 0
-4.614768 -1.8204651 -0.53691852 0
-4.2111044 -1.6718502 -0.57702124 0
-30.151257 -12.161531 0.2823438 0
-12.686126 -5.1457901 -0.040706933 0
-9.4074326 -3.8372021 -0.1962989 0
-7.8876772 -3.238806 -0.31659308 0
-6.5672402 -2.7122812 -0.3868306 0
-5.7052326 -2.3697181 -0.44698742 0
-5.017591 -2.0987122 -0.48711798 0
-4.4944282 -1.8891195 -0.52720714 0
-4.0908265 -1.7305666 -0.56228352 0
-29.338831 -12.611426 0.2802569 0
-11.72236 -5.0664439 -0.016624719 0
-8.9524097 -3.8925185 -0.1769495 0
-7.5624614 -3.3103821 -0.30212864 0
-6.3518786 -2.7949355 -0.37226209 0
-5.5199089 -2.442739 -0.427358 0
-4.8722839 -2.167136 -0.47242805 0
-4.8671885 -2.1820552 -0.47246835 0
-5.4598374 -2.4621129 -0.42246625 0
-6.2417641 -2.8287661 -0.36245689 0
-7.372293 -3.363353 -0.28745702 0
-7.3123803 -3.3577867 -0.28750953 0
-10.778685 -4.9823594 0.0025200844 0
-24.430849 -11.371519 0.27764645 0
-12.007174 -5.6105323 1.2024155 0
-11.916951 -5.6004686 1.5073417 0
-4.3087773 -2.0220256 -0.50769353 0
-4.7269931 -2.2355905 -0.45772997 0
-4.7219415 -2.245512 -0.45775601 0
-4.6870089 -2.2402 -0.45277908 0
-4.6819577 -2.2501223 -0.45280501 0
-4.2486625 -2.0513983 -0.49781492 0
-3.855185 -1.8730381 -0.5328294 0
-18.779289 -9.257555 0.27636108 0
-10.019521 -4.9649053 0.016745806 0
-8.0773993 -4.0234971 -0.1431905 0
-6.882246 -3.4483433 -0.2631605 0
-5.8663664 -2.9547973 -0.33812287 0
-5.1243501 -2.5985448 -0.39810535 0
-4.5467334 -2.3136864 -0.4430714 0
-4.1334157 -2.1151764 -0.48805949 0
-3.7549582 -1.9319845 -0.52304494 0
-14.723004 -7.6777625 0.27562416 0
-9.4601479 -4.9594345 0.026180893 0
-7.7225094 -4.0699072 -0.13365144 0
-6.587316 -3.4904044 -0.24354443 0
-5.6612644 -3.0126867 -0.3234441 0
-4.9592471 -2.6518433 -0.38337061 0
-4.4115572 -2.3722932 -0.4283174 0
-4.0132565 -2.1689529 -0.47327742 0
-3.9982474 -2.1738043 -0.47330114 0
-3.9832385 -2.1786561 -0.47332487 0
-3.9831891 -2.1886275 -0.47334328 0
-3.958214 -2.1884129 -0.46836606 0
-3.9531651 -2.1983447 -0.46839032 0
-3.9381564 -2.2031975 -0.46841374 0
-3.9331474 -2.2081301 -0.46842518 0
-3.918133 -2.212996 -0.46344849 0
-3.9130852 -2.222928 -0.46347228 0
-3.8981166 -2.2227821 -0.46348283 0
-3.903029 -2.2377937 -0.46350732 0
-3.8531675 -2.2223985 -0.45352164 0
-3.8680468 -2.2424762 -0.45854667 0
-3.8629994 -2.2524095 -0.45857027 0
-3.8480308 -2.2522652 -0.45858064 0
-3.8479445 -2.2672379 -0.45861062 0
-3.8279705 -2.2670674 -0.45362678 0
-3.8179629 -2.2719626 -0.45364347 0
-3.7979949 -2.2717805 -0.4536595 0
-3.7929487 -2.2817149 -0.45368263 0
-3.7829423 -2.2866104 -0.45369902 0
-3.7778964 -2.296545 -0.45372203 0
-3.7330337 -2.2811959 -0.44373015 0
-3.7479157 -2.3012733 -0.44875422 0
-3.4194651 -2.1086209 -0.48366454 0
-10.026918 -6.2564015 0.27404851 0
-9.9620743 -6.2458034 0.27401271 0
-9.8972292 -6.2352071 0.27397701 0
-9.8473072 -6.2347269 0.27393439 0
-9.7923861 -6.2342091 0.27388602 0
-9.722579 -6.2185788 0.27385691 0
-9.6676588 -6.2180619 0.27380908 0
-9.622736 -6.2176242 0.27377266 0
-9.5678902 -6.2071118 0.27374899 0
-9.5129671 -6.2066007 0.2737011 0
-9.453084 -6.2010527 0.27365968 0
-17.427807 -11.487651 0.75532711 0
-26.719278 -17.692112 2.5063612 0
-3.2943344 -2.177402 -0.46887496 0
-3.597692 -2.3947613 -0.43403277 0
-4.323894 -2.8904643 -0.33436069 0
-4.8610563 -3.2646403 -0.26961735 0
-4.8410621 -3.2694509 -0.26964226 0
-4.8260679 -3.2742996 -0.2696614 0
-4.8061118 -3.2741106 -0.26967403 0
-4.7811494 -3.2738969 -0.26469263 0
-4.7760801 -3.2888212 -0.26472393 0
-4.7511239 -3.2885969 -0.26474234 0
-4.7411299 -3.2934844 -0.2647554 0
-4.711205 -3.2882359 -0.25976762 0
-4.7061424 -3.303149 -0.26479849 0
-4.691143 -3.3080125 -0.25981709 0
-4.6711864 -3.3078272 -0.25982949 0
-4.6611562 -3.3177164 -0.25985405 0
-5.2678065 -3.7673562 -0.18019575 0
-5.9489827 -4.2776146 -0.065591097 0
-8.5149288 -6.1522856 0.27300456 0
-11.409047 -8.2842913 0.60138619 0
-11.254706 -8.2080297 0.59640718 0
-11.135143 -8.1620264 0.5913974 0
-11.020575 -8.1160746 0.59139341 0
-25.804529 -19.101927 1.7629361 0
-3.3477311 -2.4874375 -0.40934703 0
-3.6410315 -2.7196608 -0.36453846 0
-3.9939973 -2.9973352 -0.30976525 0
-4.4762712 -3.3709533 -0.25006381 0
-5.0429845 -3.8202202 -0.17043808 0
-5.6693473 -4.3149753 -0.060846508 0
-6.6487293 -5.0823398 0.078525722 0
-7.9462175 -6.1071086 0.27267486 0
-10.123698 -7.818429 0.56626248 0
-24.974728 -19.38307 1.7368033 0
-3.2378097 -2.521455 -0.39946201 0
-3.5410352 -2.7687051 -0.35967079 0
-3.8789976 -3.0512314 -0.30491903 0
-4.3114533 -3.404449 -0.24021903 0
-4.863183 -3.8585439 -0.16061059 0
-5.4496398 -4.3479419 -0.051040351 0
-6.3492937 -5.0896149 0.083317161 0
-7.5571203 -6.0835853 0.27245817 0
-9.4458838 -7.6425676 0.55110228 0
-24.508144 -19.922039 1.7355391 0
-3.1428306 -2.5655913 -0.39457801 0
-3.137795 -2.5755367 -0.39459667 0
-3.1277947 -2.580447 -0.3946096 0
-3.1078596 -2.5752988 -0.38961127 0
-3.1078241 -2.5852797 -0.38962421 0
-3.0978239 -2.5901906 -0.38963696 0
-3.0828593 -2.5900669 -0.38964406 0
-3.0778594 -2.5950134 -0.38965121 0
-3.0678542 -2.599936 -0.38466385 0
-3.0578895 -2.599848 -0.38466534 0
-3.0578556 -2.6098292 -0.38467774 0
-3.0428567 -2.6147068 -0.38469568 0
-3.0278921 -2.6145847 -0.38470259 0
-3.0179274 -2.6144977 -0.3847039 0
-3.0178936 -2.6244795 -0.38471624 0
-3.002924 -2.6243691 -0.37972298 0
-2.9829941 -2.6192138 -0.37972423 0
-2.9779606 -2.6291618 -0.37974188 0
-2.967962 -2.6340759 -0.37975398 0
-2.9579921 -2.6340008 -0.37475511 0
-2.9529645 -2.6439383 -0.37977257 0
-2.9429948 -2.6438639 -0.37477365 0
-3.1963055 -2.8906763 -0.33001766 0
-3.5192397 -3.1929691 -0.28030357 0
-3.8769252 -3.5305233 -0.21562561 0
-4.3239894 -3.95871 -0.13604259 0
-5.580863 -5.1327205 0.097831666 0
-6.5694242 -6.0697527 0.271925 0
-11.423253 -10.599112 0.9925772 0
-3.1213784 -2.9250107 -0.33008984 0
-3.4293351 -3.2271836 -0.27538559 0
-3.7670863 -3.5595713 -0.21071145 0
-4.1992235 -3.9826159 -0.13112482 0
-4.67101 -4.4559689 -0.02659905 0
-5.3713446 -5.1458831 0.097720131 0
-6.300137 -6.0624127 0.2718133 0
-7.5964732 -7.3415194 0.51554704 0
-9.9756384 -9.6831427 0.9182291 0
-3.3195143 -3.2562599 -0.27046302 0
-4.0694633 -4.0065107 -0.12620863 0
-5.2167253 -5.1545496 0.10264887 0
-7.3572159 -7.309495 0.51048684 0
-23.529156 -23.485369 2.5793078 0
-3.2646239 -3.2708013 -0.2654945 0
-3.989651 -4.0158439 -0.12124601 0
-5.1119518 -5.1686406 0.10258967 0
-7.1678338 -7.2828951 0.50544888 0
-22.702587 -23.173557 2.5243835 0
-3.5324869 -3.6225774 -0.20087245 0
-5.0321136 -5.1829486 0.10254133 0
-8.9003515 -9.2096395 0.86844063 0
-3.4925578 -3.632256 -0.19589683 0
-5.8014908 -6.058156 0.27162507 0
-9.6087418 -10.066732 2.2225335 0
-2.8667841 -3.0079257 -0.31026551 0
-4.2818589 -4.5126486 -0.016809672 0
-8.6314068 -9.1324348 0.85344779 0
-3.432698 -3.6467514 -0.19592577 0
-5.6718678 -6.0570655 0.27158576 0
-9.2255039 -9.8936548 2.1676257 0
-3.0899394 -3.3193858 -0.25560209 0
-5.6170497 -6.0516143 0.27157721 0
-9.1960354 -9.9519882 1.5325341 0
-2.7969313 -3.0273745 -0.30530027 0
-3.7301986 -4.063705 -0.11138466 0
-5.5521789 -6.0660534 0.27153766 0
-8.1732979 -8.9737997 0.83350122 0
-2.7570286 -3.0370588 -0.30531648 0
-3.3179281 -3.6758265 -0.19098881 0
-4.0724154 -4.5309343 -0.01188463 0
-5.4275227 -6.070024 0.27149585 0
-7.9391994 -8.9169035 0.82350492 0
-2.702131 -3.0516479 -0.30034587 0
-3.2580364 -3.6953506 -0.18602431 0
-3.9926097 -4.545279 -0.011919022 0
-5.2979589 -6.05898 0.27147755 0
-7.7349191 -8.8852434 0.81848013 0
-2.6522582 -3.0612803 -0.29536477 0
-3.1981699 -3.7098827 -0.18605793 0
-3.9078124 -4.5546284 -0.0069617331 0
-5.1832776 -6.0630636 0.27142915 0
-7.520678 -8.8435574 0.80844724 0
-2.5924423 -3.0608618 -0.29037783 0
-3.1432664 -3.7294648 -0.18109766 0
-3.8280208 -4.5640078 -0.0069983304 0
-5.0586596 -6.057097 0.27139211 0
-7.3114295 -8.8019323 0.8034215 0
-2.5623875 -3.1006217 -0.29043683 0
-3.0883384 -3.7540426 -0.18114585 0
-3.7432246 -4.5733752 -0.0020388067 0
-4.9390397 -6.0511756 0.27136129 0
-7.1171794 -8.7604122 0.79341197 0
-2.5075731 -3.100244 -0.2854428 0
-3.3460579 -4.1556768 -0.10159385 0
-4.8393793 -6.0404224 0.27134523 0
-9.825573 -12.322653 1.3694741 0
-2.7107465 -3.421525 -0.23580697 0
-3.2961617 -4.1703072 -0.096622974 0
-4.114624 -5.2356215 0.11720097 0
-5.5829787 -7.1351051 0.48010999 0
-9.1894321 -11.798266 1.3099712 0
-2.6261292 -3.3909655 -0.23078111 0
-3.2163801 -4.1747355 -0.096649826 0
-4.6399784 -6.0439062 0.27128562 0
-8.7818642 -11.480435 1.2752744 0
-2.8739491 -3.7775044 -0.17121267 0
-3.9650829 -5.2395082 0.11716175 0
-6.5045238 -8.6307583 0.77339554 0
-2.576124 -3.440588 -0.23084798 0
-3.4490361 -4.6161671 0.0028500855 0
-5.29391 -7.1279006 0.47504398 0
-18.630699 -25.191357 3.1748929 0
-3.0817847 -4.1887717 -0.091684192 0
-4.4207058 -6.0372787 0.27124727 0
-7.9862719 -10.949863 1.2157514 0
-2.7542534 -3.8016703 -0.16625848 0
-3.7906027 -5.253233 0.12211415 0
-6.1807108 -8.5933027 0.76337039 0
-2.4714501 -3.4548776 -0.2258673 0
-3.2944896 -4.6300702 0.0078094006 0
-5.0348444 -7.1059752 0.4700231 0
-16.736982 -23.733131 2.9612894 0
-2.9521642 -4.2078648 -0.086717993 0
-4.2163749 -6.0407825 0.27121115 0
-7.4736485 -10.751133 1.1808923 0
-2.6395917 -3.8208895 -0.16128534 0
-3.6161876 -5.2569847 0.12209061 0
-5.8470058 -8.5358591 0.75337905 0
-2.3617756 -3.4691689 -0.21588722 0
-3.1499166 -4.6490622 0.012774378 0
-4.7757969 -7.079113 0.47001684 0
-15.850418 -23.586306 2.9012764 0
-2.827491 -4.2370124 -0.08175987 0
-4.0121288 -6.0293288 0.27120787 0
-7.0058045 -10.582781 1.156024 0
-2.287015 -3.4786849 -0.21589589 0
-2.7826078 -4.2517028 -0.081775814 0
-3.9323785 -6.033771 0.27119368 0
-6.8613424 -10.571708 1.1460186 0
-2.2520955 -3.4934659 -0.21090907 0
-2.7228653 -4.2413144 -0.081760973 0
-3.3670189 -5.2702594 0.12706347 0
-4.4720206 -7.0319796 0.46504986 0
-11.583218 -18.299608 2.2771587 0
-2.6730354 -4.2459941 -0.076762259 0
-3.7779636 -6.0277014 0.27119982 0
-6.5724363 -10.544614 1.1360216 0
-2.385428 -3.8492417 -0.15130597 0
-3.2524495 -5.2694855 0.12706882 0
-5.2143373 -8.4962893 0.73336405 0
-2.1424484 -3.5127876 -0.20591697 0
-2.8458996 -4.6870146 0.017736793 0
-4.2181015 -6.9802542 0.46010339 0
-9.608057 -15.972243 1.9997706 0
-2.5534034 -4.2702174 -0.076779991 0
-3.5836594 -6.0263944 0.27120006 0
-6.1940932 -10.45696 1.1161079 0
-2.2758045 -3.8635633 -0.14630559 0
-3.0880589 -5.2684135 0.13207948 0
-4.9404087 -8.4743881 0.72838789 0
-2.0378432 -3.5171666 -0.20090225 0
-2.7113714 -4.7011456 0.017736554 0
-4.8607535 -8.4638367 0.72340524 0
-2.2060246 -3.8731492 -0.14130887 0
-3.4242573 -6.0303354 0.27121019 0
-5.8358517 -10.324542 1.0962626 0
-2.17119 -3.8679414 -0.14129317 0
-3.369467 -6.0299797 0.27121624 0
-8.0091343 -14.397075 1.8015678 0
-2.6067309 -4.7154942 0.022737652 0
-4.651576 -8.4524221 0.71842945 0
-2.1163704 -3.8776169 -0.1412937 0
-3.2798405 -6.024404 0.27123645 0
-7.6068268 -14.039515 1.7519897 0
-2.5370078 -4.7150683 0.022751272 0
-4.5221095 -8.4415588 0.71345377 0
-2.0615981 -3.8773065 -0.13627699 0
-3.1901608 -6.0288382 0.27124128 0
-7.2293215 -13.712134 1.7073784 0
-2.4722328 -4.7246747 0.022753924 0
-4.3827128 -8.4156666 0.7134949 0
-2.0117786 -3.8870189 -0.13627139 0
-3.1005592 -6.0182815 0.27127191 0
-6.871727 -13.394903 1.6677632 0
-2.4074845 -4.7292886 0.022765964 0
-4.2483702 -8.3798065 0.70855772 0
-1.9569813 -3.8917196 -0.13126102 0
-3.0257788 -6.042809 0.27126056 0
-6.5438404 -13.127872 1.6330888 0
-2.3427324 -4.7339172 0.027779073 0
-4.1139479 -8.3589602 0.70359749 0
-1.9071647 -3.9014425 -0.13125306 0
-2.9312282 -6.0222445 0.27130544 0
-6.2804189 -12.961213 1.6083091 0
-2.2780116 -4.7335443 0.027801484 0
-3.9945004 -8.3432026 0.69864404 0
-1.852373 -3.9061458 -0.13124084 0
-2.8465745 -6.02174 0.27132773 0
-11.205914 -23.813179 3.3258307 0
-2.8067625 -6.0115113 0.27134749 0
-5.9423132 -12.784101 1.5785526 0
-2.1883507 -4.7430382 0.027819157 0
-3.8153594 -8.3021078 0.69372964 0
-1.7776966 -3.9057579 -0.12620926 0
-2.7320366 -6.0260673 0.27135718 0
-15.103181 -33.45108 6.2698212 0
-1.7577657 -3.9106538 -0.12620655 0
-3.7108581 -8.2764874 0.69378132 0
-2.3658166 -5.3140268 0.13719223 0
-14.91336 -33.634693 6.2846565 0
-1.7279059 -3.9104993 -0.12619063 0
-4.3876843 -9.9652166 1.02686 0
-14.485197 -33.044937 7.9102864 0
-2.3259776 -5.3188028 0.13720359 0
-14.451659 -33.191826 6.1902165 0
-1.6980221 -3.9153464 -0.12618208 0
-4.3030424 -9.9597044 1.0268867 0
-14.27565 -33.173443 7.9151907 0
-2.5777326 -6.0101938 0.27142465 0
-14.186659 -33.191528 7.0401797 0
-2.028975 -4.7621751 0.032862231 0
-14.191947 -33.429977 6.2050123 0
-1.6581863 -3.9201455 -0.1261673 0
-5.2857656 -12.540052 1.5339621 0
-14.133799 -33.6936 8.8946638 0
-3.4372046 -8.209878 0.68393099 0
-14.064751 -33.726772 8.0046501 0
-2.503032 -6.0197725 0.27144554 0
-13.59032 -32.817745 6.9357042 0
-1.9692314 -4.7668586 0.032886237 0
-8.0025749 -19.474564 2.7160659 0
-2.8089614 -6.8964486 0.4454585 0
-2.1616492 -5.3329086 0.13725697 0
-1.7465279 -4.340651 -0.056604177 0
-13.771386 -34.3755 5.4441113 0
-1.5685567 -3.9297132 -0.12113088 0
-4.9326673 -12.40295 1.5092067 0
-13.327276 -33.668247 8.8198853 0
-2.7194054 -6.8859425 0.44051042 0
-2.0869832 -5.3275185 0.13729286 0
-13.486283 -34.559887 6.3340001 0
-1.5237687 -3.9244998 -0.12110367 0
-3.8154185 -9.8568392 1.0071489 0
-12.865863 -33.38406 7.845305 0
-2.3088872 -6.0137262 0.27153102 0
-1.4938862 -3.9293597 -0.12109295 0
-3.0839489 -8.1328821 0.67413735 0
-1.7900378 -4.760952 0.032976255 0
-3.6810653 -9.8360729 1.0022217 0
-1.7701223 -4.7658596 0.037985981 0
-3.6214035 -9.8107395 0.99727082 0
-1.9525291 -5.3418384 0.14234266 0
-6.4199634 -17.630562 2.4484334 0
-2.1645339 -6.0079784 0.27160206 0
-6.2661877 -17.449705 2.4236724 0
-2.134717 -5.9978261 0.27163252 0
-6.1321044 -17.333954 2.4038327 0
-2.0998776 -5.9926524 0.27165207 0
-6.0079889 -17.223263 2.3889933 0
-2.0848587 -6.0275698 0.2716313 0
-5.8591671 -17.047449 2.3642242 0
-2.0549974 -6.0274205 0.27164826 0
-5.7251782 -16.906715 2.3444169 0
-2.0250916 -6.0372729 0.27165142 0
-5.6060252 -16.801062 2.3295712 0
-1.9853423 -6.0120826 0.27169606 0
-5.486897 -16.690403 2.3097329 0
-1.9505243 -6.0019159 0.27172336 0
-5.3578219 -16.564716 2.2949059 0
-1.9256405 -6.006794 0.2717379 0
-5.2288585 -16.414021 2.270112 0
-1.9006699 -6.031673 0.27172527 0
-5.1097078 -16.303387 2.25527 0
-1.8658952 -6.0115104 0.27176666 0
-7.7360492 -25.051994 3.9355626 0
-1.2101976 -3.9381356 -0.11091453 0
-2.4471402 -8.0095453 0.65955913 0
-7.5661063 -24.882828 5.1507363 0
-1.4416103 -4.7693434 0.038173616 0
-4.8169894 -15.986837 2.2107203 0
-1.7912418 -6.0111628 0.27181247 0
-4.707736 -15.896264 2.1958559 0
-1.76138 -6.0110259 0.27183095 0
-4.6034746 -15.805724 2.1859949 0
-1.7364335 -6.030911 0.27182677 0
-4.5140615 -15.750251 2.1760983 0
-1.7016354 -6.0157552 0.27186179 0
-1.2188978 -4.358295 -0.041300833 0
-3.3064864 -11.849033 1.4154555 0
-7.9959688 -28.816639 7.3317194 0
-1.8833522 -6.8217263 0.43600526 0
-7.8725829 -28.645016 6.5619373 0
-1.4597837 -5.3495555 0.14263305 0
-6.5049534 -23.925406 3.7372339 0
-1.0658594 -3.9475787 -0.10581651 0
-2.1387117 -7.9580617 0.65478939 0
-1.4249711 -5.3494081 0.14266418 0
-7.8305583 -29.538761 6.0060949 0
-1.2575027 -4.7685823 0.043309182 0
-6.1973119 -23.613802 3.682699 0
-1.0260683 -3.9424305 -0.10578039 0
-3.0529211 -11.757773 1.4006866 0
-2.0391815 -7.9526043 0.65485501 0
-1.5274866 -6.0099959 0.27198896 0
-1.094496 -4.362813 -0.041207314 0
-3.8432527 -15.366838 2.111825 0
-7.1542759 -28.807964 8.0171556 0
-2.3332784 -9.4441481 0.94828367 0
-7.188302 -29.242208 7.3817172 0
-1.6643844 -6.8157563 0.43615264 0
-1.1530263 -4.7631736 0.043394625 0
-1.0447145 -4.3726301 -0.041175246 0
-1.0298462 -4.3525739 -0.041144669 0
-1.0198777 -4.3575382 -0.041142017 0
-6.900434 -29.582855 5.236619 0
-1.0148692 -4.3725224 -0.041148156 0
-3.5053632 -15.180192 2.0822003 0
-6.6165886 -28.865101 7.9973993 0
-2.14924 -9.4133101 0.94343352 0
-6.6848507 -29.484573 7.4117541 0
-1.7854784 -7.916482 0.65005541 0
-6.6445155 -29.63938 7.4416118 0
-1.3433304 -6.0192442 0.27210906 0
-1.171207 -5.3284068 0.14785722 0
-0.95019901 -4.3622985 -0.041093975 0
-3.2568991 -15.029035 2.0574603 0
-6.2721672 -29.158381 8.0522537 0
-1.6909376 -7.9060841 0.64511895 0
-6.2720079 -29.531599 6.6618748 0
-1.1214571 -5.323225 0.14789642 0
-4.7417068 -22.636583 3.504359 0
-0.82203168 -3.9517467 -0.10062566 0
-1.631225 -7.8958416 0.6451602 0
-0.97383291 -4.7725382 0.048511997 0
-2.3464825 -11.619514 1.3712012 0
-1.3558309 -6.8045025 0.43135649 0
-4.433681 -22.425146 3.4697068 0
-0.77723122 -3.9566107 -0.10059538 0
-1.3259366 -6.8143892 0.43136573 0
-4.3144126 -22.354595 3.4548321 0
-0.75729972 -3.9615498 -0.10058799 0
-1.291157 -6.7942576 0.43140787 0
-4.1951599 -22.279047 3.4399631 0
-0.7423684 -3.9665089 -0.10057691 0
-1.2612641 -6.8041463 0.43141806 0
-4.0759664 -22.188503 3.4251134 0
-0.72247612 -3.9614496 -0.10055694 0
-1.2313892 -6.8090363 0.43143409 0
-3.956708 -22.112967 3.4102442 0
-0.70258278 -3.9563911 -0.10053715 0
-1.196552 -6.8039083 0.4314588 0
-3.8374243 -22.042439 3.4003692 0
-0.68267041 -3.9563332 -0.1005232 0
-1.1667145 -6.7988009 0.43148711 0
-3.7282159 -21.951948 3.3855245 0
-0.66773939 -3.9612947 -0.10051155 0
-1.1318955 -6.7886758 0.43151802 0
-3.6088889 -21.891428 3.3756373 0
-0.64780861 -3.9662383 -0.10050312 0
-1.1019651 -6.8085704 0.43151751 0
-3.4996741 -21.800947 3.3607924 0
-0.62793332 -3.9561825 -0.10047707 0
-1.0671475 -6.7984481 0.43154928 0
-3.3804049 -21.725431 3.3459241 0
-0.60800356 -3.9611278 -0.10046804 0
-1.0372729 -6.8033447 0.4315668 0
-3.2711248 -21.649963 3.3360612 0
-0.59310955 -3.9560919 -0.10044426 0
-1.0024892 -6.7832246 0.43160981 0
-3.1519747 -21.539454 3.3162313 0
-0.57314241 -3.9710381 -0.10044673 0
-1.1285192 -7.8789363 0.64049029 0
-0.74823236 -5.3069835 0.14818151 0
-2.9781857 -21.38872 3.2914724 0
-0.54825622 -3.9759774 -0.10042652 0
-1.2685021 -9.2897768 0.92406416 0
-2.9751463 -21.98559 4.97086 0
-0.70838588 -5.311862 0.14820303 0
-2.9454906 -22.204262 3.9357204 0
-0.57194889 -4.3661671 -0.035806715 0
-1.4858934 -11.426037 1.3419007 0
-0.67355865 -5.3117609 0.14823429 0
-1.8051916 -14.392873 1.958873 0
-0.83326209 -6.7876682 0.43173409 0
-7.8470459 -64.689491 10.917142 0
-0.52217144 -4.3710389 -0.035767734 0
-1.0942938 -9.2841606 0.9241879 0
-7.5895362 -64.99704 14.121819 0
-0.6913932 -5.9870048 0.27259153 0
-1.6361115 -14.342226 1.9490356 0
-0.66153842 -5.9819155 0.27261776 0
-7.2210803 -65.857033 11.096379 0
-0.47242606 -4.365921 -0.030716717 0
-0.83984345 -7.877965 0.64070433 0
-0.45250759 -4.3708673 -0.035703868 0
-0.805062 -7.862854 0.64074969 0
-0.43261841 -4.3658257 -0.030679673 0
-0.76520967 -7.8677278 0.6407699 0
-0.41269696 -4.370779 -0.030666471 0
-0.73039162 -7.8626194 0.64080429 0
-0.39279273 -4.3707333 -0.030647725 0
-0.695539 -7.8675127 0.64082807 0
-0.36800689 -4.3356714 -0.030594707 0
-0.7758317 -9.2581015 0.91945434 0
-1.9782035 -23.912592 5.9396634 0
-0.48240241 -5.9714108 0.27277762 0
-0.3430014 -4.3806167 -0.035610855 0
-0.87867606 -11.403907 1.3323501 0
-0.50487643 -6.7566814 0.42702925 0
-0.37998417 -5.2959733 0.14850242 0
-0.30807793 -4.4155474 -0.035605282 0
-0.96945667 -14.219856 1.9296221 0
-0.26460698 -3.9803452 -0.10016343 0
-0.60661972 -9.2525787 0.91959429 0
-0.42525017 -6.7514625 0.42709923 0
-0.32031855 -5.2808304 0.1485741 0
-0.25343108 -4.3804336 -0.030522496 0
-0.81028414 -14.189328 1.9247779 0
-1.2787714 -22.940962 6.8460951 0
-0.61991739 -11.383087 1.332575 0
-0.20988445 -3.9752479 -0.095102817 0
-0.48219645 -9.2522116 0.91969943 0
-1.1789324 -23.234499 5.7658749 0
-0.29340857 -5.9359303 0.27298516 0
-0.22241141 -4.7554841 0.054159239 0
-0.89287555 -19.625738 3.0195603 0
-0.19373594 -4.3753166 -0.030456841 0
-0.22077473 -5.2806015 0.14866388 0
-0.99772263 -23.983456 5.3602977 0
-0.23869523 -5.9257998 0.27304554 0
-0.88756543 -22.503317 5.5917916 0
-0.35279354 -9.2468376 0.91480982 0
-0.82373732 -22.123562 6.0522032 0
-0.33292142 -9.236783 0.91483843 0
-0.76446563 -21.97332 6.0123863 0
-0.48199564 -14.108288 1.9151102 0
-0.144007 -4.3652239 -0.030395836 0
-2.0187078 -62.666962 10.517894 0
-0.70144707 -22.720016 7.9367452 0
-0.16901115 -5.9256387 0.27310807 0
-0.62457502 -22.242367 5.5272417 0
-0.17642498 -6.7408309 0.42732948 0
-0.16152757 -6.7307963 0.42735389 0
-0.52461553 -22.272591 6.0872922 0
-0.20843181 -9.2564516 0.9199295 0
-0.47514874 -22.082922 6.5925188 0
-0.23177539 -11.351944 1.3279275 0
-0.084263787 -4.3751197 -0.030342937 0
-0.35566309 -19.499012 3.0001025 0
-0.078068726 -4.7601991 0.05429481 0
-0.068092361 -4.7701774 0.049296811 0
-0.074408874 -5.940434 0.27318537 0
-0.083394609 -7.8508358 0.63636839 0
-0.2208042 -22.331615 6.102478 0
-0.10240563 -11.336591 1.3280534 0
-0.17491382 -22.582077 6.7322817 0
-0.094198368 -13.957133 1.8955735 0
-0.047657084 -11.331438 1.3231016 0
-0.014283979 -9.260952 0.9200927 0
-0.015085708 -22.846098 6.2371521 0
0.00052629039 -9.2309132 0.91514397 0
0.029284155 -22.72093 6.2073174 0
0.021096889 -7.8455925 0.63647503 0
0.083626412 -22.685217 5.6323924 0
0.030054394 -5.9302254 0.2733044 0
0.036361173 -4.7600093 0.054423377 0
0.23324253 -22.491308 7.2777081 0
0.21100247 -19.247316 2.9658208 0
0.055094529 -4.384902 -0.030201197 0
0.18933426 -13.896358 1.8908798 0
0.33267 -22.55549 6.727735 0
0.18124694 -11.315852 1.3233259 0
0.38078031 -22.119711 6.0481849 0
0.14556459 -7.8603163 0.63658178 0
0.45279694 -22.944176 5.6974525 0
0.12458076 -5.9200478 0.27341062 0
0.11098471 -4.7548957 0.054510847 0
0.47460774 -19.171581 2.9561162 0
0.59177989 -22.644743 6.752871 0
0.31063536 -11.305538 1.3234533 0
0.65147322 -22.719069 6.2078428 0
0.23515297 -7.8601274 0.6366694 0
0.17233267 -5.2748694 0.14907698 0
0.64867973 -19.121115 2.9513168 0
0.1434115 -3.9797418 -0.094716132 0
0.24648903 -6.7099466 0.42778283 0
0.17444596 -4.3597455 -0.030043155 0
0.3839708 -9.29004 0.92044711 0
0.23206174 -5.2797794 0.1491386 0
0.85739112 -19.010569 2.9366148 0
0.18817724 -3.9746976 -0.094657779 0
0.3210918 -6.6948147 0.4278765 0
0.94193268 -18.985353 2.9317167 0
1.143386 -22.368118 6.6786246 0
0.41431409 -7.8547759 0.63685453 0
0.26526046 -4.7546844 0.054679841 0
0.52829617 -9.2897463 0.92059565 0
0.28515714 -4.7546635 0.054705665 0
0.57307315 -9.2796564 0.92064643 0
0.31005272 -4.7546296 0.054729491 0
0.61796588 -9.3095722 0.92566192 0
0.32994688 -4.7546062 0.049755618 0
0.65775901 -9.3044996 0.9257108 0
0.34983248 -4.7495918 0.054786146 0
0.69750911 -9.2844238 0.92077279 0
1.4813696 -19.295284 4.3768659 0
0.41622174 -5.2845306 0.14933591 0
1.1103189 -13.934194 1.896705 0
0.55504173 -6.6994357 0.42811608 0
0.4045853 -4.7545314 0.04984571 0
1.6028163 -18.603788 2.887702 0
0.34735858 -3.9645784 -0.094447792 0
0.70299751 -7.8542829 0.64215565 0
0.43941605 -4.749495 0.049888059 0
0.8718307 -9.3191175 0.92591894 0
0.45931286 -4.7494807 0.049915031 0
0.9115718 -9.294054 0.92598593 0
0.4842357 -4.7594538 0.049931586 0
0.95133758 -9.2789879 0.92104471 0
0.50410646 -4.7494411 0.049967065 0
0.99611962 -9.2689142 0.92109704 0
0.52400351 -4.7494287 0.049994379 0
1.0359143 -9.2638559 0.92114806 0
0.60528529 -5.2743425 0.14957337 0
1.3109894 -11.263535 1.3294928 0
0.63017058 -5.2743206 0.14960255 0
1.3607701 -11.268455 1.3295447 0
0.65508211 -5.2842984 0.1496236 0
1.415628 -11.30337 1.3345711 0
0.67993098 -5.269278 0.14966454 0
1.465306 -11.26829 1.3296551 0
0.70482987 -5.2742581 0.14968993 0
1.520074 -11.268204 1.3297096 0
0.72970402 -5.2692389 0.14972326 0
1.5698664 -11.278132 1.3297591 0
0.74959064 -5.2692332 0.14975509 0
2.006305 -13.922579 1.9126339 0
0.8711012 -5.9190798 0.27425006 0
8.412734 -56.843224 9.6725092 0
0.6521365 -4.3543906 -0.034449816 0
1.4043255 -9.2833481 0.92653179 0
0.73302108 -4.7493048 0.050254062 0
1.7540417 -11.272879 1.3349628 0
0.94083285 -5.9390264 0.2743178 0
2.8499513 -17.846457 2.8047061 0
0.64091527 -3.9494736 -0.099058062 0
1.2753162 -7.8335643 0.64282334 0
0.78776336 -4.7492847 0.050324574 0
1.5536419 -9.2781811 0.93170679 0
0.8076486 -4.7442832 0.05035758 0
1.598482 -9.2931318 0.93174541 0
0.83252138 -4.734271 0.050392583 0
1.6382432 -9.2730942 0.93181109 0
0.85242993 -4.7392707 0.050418571 0
1.683062 -9.2780476 0.93185687 0
0.87732697 -4.7392602 0.050446257 0
1.7228582 -9.2730141 0.93191218 0
0.89722395 -4.7392616 0.050476149 0
1.7676432 -9.2629719 0.93196917 0
0.9221099 -4.7342525 0.05050768 0
1.8074398 -9.2579403 0.93202496 0
0.94201803 -4.7392559 0.050534382 0
2.2467711 -11.242321 1.3405501 0
1.0731138 -5.2690864 0.1501569 0
2.3015294 -11.237266 1.3406135 0
1.0980008 -5.2690816 0.15018889 0
2.3563085 -11.242212 1.3406706 0
1.1228873 -5.2690778 0.15022115 0
2.4060686 -11.237176 1.3457369 0
1.1477739 -5.2690749 0.15025361 0
2.4608581 -11.247127 1.3457916 0
1.1726604 -5.269073 0.15028624 0
2.5156369 -11.25208 1.34585 0
1.197547 -5.2690721 0.15031904 0
3.1711326 -13.896175 1.9339584 0
1.5505134 -6.7035809 0.43429613 0
3.9928558 -17.14509 2.7416487 0
0.92453659 -3.9395456 -0.10365415 0
1.857844 -7.8681474 0.64848346 0
1.0352725 -4.3294129 -0.033911854 0
1.8926691 -7.8631372 0.64853406 0
1.0551573 -4.3194222 -0.033876657 0
1.9325163 -7.8681221 0.65357673 0
1.0750728 -4.3244324 -0.033850878 0
1.972352 -7.8681049 0.65362263 0
1.0949683 -4.3194432 -0.033818781 0
2.0071774 -7.8630991 0.65367401 0
1.1198807 -4.3244424 -0.03879407 0
2.0470307 -7.873086 0.65371513 0
1.1347585 -4.3094678 -0.033753753 0
2.0868657 -7.8730736 0.6537621 0
1.1596816 -4.319468 -0.038732141 0
2.1267009 -7.8730626 0.65380937 0
1.1795774 -4.3144827 -0.038699508 0
2.1665492 -7.8780522 0.65385258 0
1.1994779 -4.3094964 -0.038668573 0
2.2014036 -7.8830509 0.65389526 0
1.2193981 -4.3145108 -0.038643748 0
2.2412486 -7.8830423 0.65393955 0
1.3550792 -4.7143612 0.046112701 0
3.2877829 -11.371601 1.3766255 0
1.7272656 -5.9138656 0.27533409 0
4.8725815 -16.604549 2.6981771 0
1.1534022 -3.9047241 -0.10329971 0
2.335861 -7.883039 0.65905356 0
1.4098194 -4.7043972 0.046193644 0
3.4372988 -11.406536 1.3817588 0
1.7919152 -5.8838973 0.27544281 0
5.0466003 -16.499491 2.6934669 0
1.2031982 -3.9047632 -0.1032356 0
2.8831372 -9.3274059 0.95821774 0
1.4695785 -4.7044287 0.046267927 0
3.5918136 -11.441478 1.3918935 0
1.6654575 -5.2441978 0.14594759 0
3.6465905 -11.441469 1.3919592 0
1.6903684 -5.2542143 0.14597557 0
3.7063885 -11.451456 1.3970174 0
1.7152448 -5.2442307 0.14601462 0
3.7661846 -11.461443 1.3970761 0
1.7401383 -5.2442479 0.14604837 0
3.8259735 -11.466434 1.4021379 0
1.7700319 -5.2442584 0.14608078 0
3.8857605 -11.471423 1.4022002 0
1.7949338 -5.2492776 0.14611226 0
3.9505656 -11.48641 1.4072562 0
1.8198098 -5.2392983 0.14615214 0
4.0053415 -11.486414 1.4073244 0
1.8497198 -5.2493119 0.14617994 0
4.0701537 -11.506406 1.4123789 0
1.8745972 -5.2393336 0.14621961 0
4.1299238 -11.501405 1.4124482 0
1.8994991 -5.2443566 0.14625172 0
4.1947198 -11.5114 1.4175086 0
1.924377 -5.2343807 0.14629157 0
4.2545052 -11.516402 1.4175737 0
1.9542863 -5.2443981 0.1463203 0
4.3142924 -11.52141 1.4226391 0
2.2302287 -5.9041018 0.27596834 0
6.1064186 -16.104387 2.6900344 0
1.4719483 -3.8651075 -0.10782197 0
3.5855691 -9.3724499 0.97399092 0
6.2819943 -16.349806 3.9949274 0
2.2800508 -5.904129 0.27602485 0
6.8636003 -17.73877 3.3942337 0
1.6574444 -4.264946 -0.043011129 0
5.4424157 -13.955309 2.0214515 0
3.6802053 -9.372489 0.97910655 0
6.4011941 -16.239861 3.9801829 0
2.6660745 -6.7287784 0.44563451 0
1.7022678 -4.2649999 -0.042951554 0
3.1827552 -7.933207 0.67500114 0
1.8827659 -4.6548381 0.041860133 0
5.6716518 -13.98033 2.0316868 0
3.2475338 -7.9432397 0.67507219 0
18.603264 -45.335289 9.4843397 0
2.1534507 -5.2195969 0.14659737 0
18.441095 -44.63525 8.190011 0
1.7669877 -4.2550917 -0.04285562 0
5.8161082 -13.975371 2.0418591 0
3.9242716 -9.3576012 0.98440599 0
2.4841921 -5.8843312 0.27631104 0
6.7234612 -15.859589 2.6909752 0
1.6362303 -3.8453641 -0.11257428 0
3.4020097 -7.9583254 0.68024236 0
2.0022807 -4.6499939 0.042026386 0
5.0169582 -11.601563 1.4533685 0
2.56389 -5.8794069 0.27641243 0
6.9527469 -15.889627 2.7111995 0
1.6810087 -3.8304546 -0.11249551 0
3.5116234 -7.963398 0.68036968 0
2.0670342 -4.6450734 0.04211095 0
4.1783719 -9.3677454 0.98970008 0
2.0919445 -4.650106 0.037142262 0
4.2382035 -9.3777695 0.99475455 0
2.1168361 -4.640141 0.037179798 0
4.2880149 -9.3728056 0.99481773 0
2.1367409 -4.6401839 0.037214562 0
5.3707471 -11.61674 1.468765 0
2.4223645 -5.1999383 0.14197169 0
5.4405293 -11.621772 1.4688363 0
2.4522593 -5.1999741 0.14200838 0
5.5103154 -11.631809 1.4739071 0
2.4821463 -5.1950116 0.14204782 0
5.5700927 -11.631859 1.4789832 0
2.5120471 -5.2000499 0.142083 0
5.6398745 -11.636898 1.4790559 0
2.5419474 -5.2050891 0.14211854 0
5.7046514 -11.636947 1.4841321 0
2.5668244 -5.190135 0.14216261 0
5.7744336 -11.641991 1.4892057 0
2.5967302 -5.2001758 0.14219673 0
5.8442254 -11.657037 1.4892764 0
2.9623947 -5.8648906 0.27693388 0
7.9136295 -15.610306 2.732579 0
1.9449835 -3.8159194 -0.12212503 0
4.8414021 -9.4831657 1.0203621 0
3.0272386 -5.8849425 0.27698806 0
22.935598 -44.536266 8.4900064 0
2.1803041 -4.2107873 -0.052253783 0
7.2762284 -14.041093 2.1184692 0
4.9560499 -9.4982672 1.0254853 0
2.7262437 -5.1903806 0.14237367 0
8.2977247 -15.740462 2.772881 0
2.0096877 -3.8010812 -0.12201285 0
5.0457888 -9.5133448 1.0305769 0
23.80921 -44.747166 11.035598 0
3.6177783 -6.7796826 0.45676196 0
23.738148 -44.357018 9.7409029 0
2.7910383 -5.1954699 0.14244869 0
8.3869429 -15.565691 2.7581623 0
2.054522 -3.7961674 -0.12695101 0
4.3538704 -8.0291624 0.70132101 0
24.006641 -44.11734 9.7214298 0
2.8308692 -5.1855497 0.14251196 0
6.392437 -11.667515 1.5149014 0
2.860759 -5.1806006 0.14255287 0
6.4471827 -11.637597 1.5149933 0
2.8856483 -5.1756554 0.13759477 0
6.0962391 -10.893043 1.4403671 0
2.9155431 -5.1757083 0.13763447 0
6.0458293 -10.683214 1.4205239 0
2.9504378 -5.1757574 0.13767351 0
6.0455198 -10.573342 1.4106411 0
2.9803371 -5.1808124 0.1377122 0
6.0802727 -10.528442 1.4107341 0
3.0102267 -5.175869 0.13775435 0
6.190135 -10.603478 1.4207809 0
3.0451257 -5.180922 0.13779269 0
6.2298903 -10.558577 1.4208726 0
3.070008 -5.1659846 0.13783817 0
6.2796645 -10.533669 1.4209572 0
3.104907 -5.1710396 0.13787691 0
6.2993979 -10.458785 1.416059 0
3.1297982 -5.1661038 0.13791984 0
6.3091216 -10.36891 1.4111656 0
3.1646934 -5.1661611 0.13796031 0
6.353898 -10.344011 1.4112511 0
2.8391166 -4.5814743 0.028194964 0
2.869184 -4.6166434 0.65820301 0
2.6036899 -4.1617112 -0.066631228 0
2.9641461 -4.7166214 0.53820807 0
2.8889208 -4.5715985 0.028273195 0
6.5432801 -10.324279 1.416485 0
3.7748382 -5.9210949 0.27789164 0
7.9246364 -12.393559 1.9959267 0
2.1979275 -3.4221647 -0.19631708 0
2.968822 -4.6068172 0.53333795 0
2.9636889 -4.5767488 0.023366153 0
2.9136703 -4.4819884 0.77841371 0
3.8745432 -5.9262676 0.27800831 0
2.9736435 -4.5370822 1.0434363 0
2.4479535 -3.7221863 -0.13632837 0
2.9835424 -4.5270348 0.65845788 0
3.9293649 -5.9263783 0.27808002 0
3.4389 -5.1668906 1.003317 0
2.2726221 -3.4023981 -0.20119041 0
4.5998683 -6.871089 0.4678669 0
3.0632958 -4.5520186 0.023526847 0
3.2134793 -4.7571478 0.94849122 0
2.3025136 -3.4024873 -0.20114452 0
3.0532219 -4.4922071 0.53358114 0
3.0182655 -4.4273725 1.2885973 0
3.1131556 -4.5521154 0.023584098 0
3.0381186 -4.432343 0.77863538 0
4.7394633 -6.8763366 0.47303039 0
3.1530082 -4.5422211 0.018645227 0
3.0579698 -4.3974748 0.90370154 0
2.3622839 -3.3826706 -0.20604783 0
3.0929089 -4.4174519 0.65371507 0
3.553364 -5.0673599 1.5935557 0
4.8341918 -6.8815103 0.47314119 0
3.0778944 -4.3626084 1.2837466 0
3.6331551 -5.1421552 0.13358156 0
3.0977936 -4.3726554 1.1587838 0
2.917536 -4.1075463 -0.071154952 0
3.1077173 -4.3626475 0.90380502 0
2.4120986 -3.3728282 -0.20596823 0
3.1376555 -4.3776331 0.65382034 0
3.1127024 -4.3327675 1.4138298 0
3.6929674 -5.1323595 0.42367163 0
3.0726047 -4.2578039 1.2688657 0
3.7178888 -5.132349 0.13369298 0
3.1575468 -4.3478246 1.1638848 0
2.9823172 -4.0977206 -0.076061875 0
3.1524765 -4.3228464 1.0289094 0
2.6920691 -3.6778903 -0.14595485 0
3.1674161 -4.317863 0.90392983 0
2.4668729 -3.3530266 -0.20587012 0
3.187362 -4.322876 0.77894783 0
3.1724114 -4.2929931 1.5439533 0
3.2073081 -4.3278909 0.65396601 0
3.2372637 -4.3529034 0.53398073 0
3.197305 -4.2880421 1.4139928 0
3.3122406 -4.4278965 0.40898538 0
4.137816 -5.5227218 1.7437732 0
3.3221924 -4.422936 0.40900618 0
4.1527538 -5.5127621 1.7437987 0
3.3371463 -4.4229732 0.40902603 0
4.5177083 -5.9525232 0.27876702 0
3.2120826 -4.2231774 1.2790815 0
3.9073102 -5.1228004 0.12894058 0
3.2569978 -4.2632256 1.159114 0
3.1218379 -4.0731277 -0.080853581 0
3.2619288 -4.2482347 0.90413582 0
3.2969921 -4.273315 1.6941304 0
3.2818768 -4.2532549 0.7791543 0
2.5714684 -3.3234017 -0.21069095 0
3.3268354 -4.2882681 0.65916836 0
3.3367784 -4.2782936 0.5341894 0
3.3467298 -4.2683334 0.53421044 0
3.356683 -4.2633734 0.53423095 0
3.3666363 -4.2584143 0.53425145 0
3.3765883 -4.2484546 0.53427249 0
4.2870235 -5.3833041 1.9091086 0
3.3865488 -4.2435069 0.659293 0
2.6412129 -3.3036511 -0.21557567 0
3.361495 -4.1935692 0.77931952 0
2.656179 -3.3086858 -0.21556017 0
3.3764489 -4.1886077 0.77933967 0
4.3318448 -5.3584347 1.9091842 0
3.3963993 -4.1936345 0.65435863 0
4.341785 -5.3484802 1.9092097 0
3.4013519 -4.1836762 0.65437967 0
4.3517237 -5.3335261 1.9092357 0
3.4163063 -4.1787162 0.65939981 0
2.7060361 -3.3038301 -0.22049496 0
3.4312611 -4.1787572 0.65942001 0
2.710999 -3.2988694 -0.22047755 0
3.4512177 -4.1837964 0.65943921 0
2.7259624 -3.2939057 -0.22046098 0
3.4311688 -4.1438541 0.77946353 0
3.4812186 -4.1889105 1.704458 0
3.4261241 -4.118907 0.9044857 0
3.0059657 -3.6089265 -0.16046104 0
3.4210804 -4.0989599 1.0295076 0
10.363025 -12.372719 4.9036736 0
3.506058 -4.1789942 1.1745194 0
3.3709743 -4.0039406 -0.08546412 0
3.4860024 -4.1340423 1.169544 0
3.3959336 -4.0139813 -0.09044534 0
3.5009577 -4.1340823 1.1695639 0
3.3908892 -3.9990282 -0.085424334 0
3.8059344 -4.464004 0.0045556128 0
3.4759057 -4.0741363 1.2895885 0
3.5858457 -4.1890988 0.14959918 0
3.6008048 -4.1841493 0.27961972 0
3.5708315 -4.1392136 1.4396229 0
3.6107638 -4.1792006 0.40964043 0
2.6005633 -3.004323 -0.2802746 0
3.8157544 -4.3992243 0.54964626 0
4.525908 -5.2091837 1.9145907 0
3.9707329 -4.5542569 0.6996575 0
2.8455331 -3.2543712 -0.22525927 0
3.5706265 -4.07936 0.78470802 0
9.4915686 -10.823751 4.4093027 0
3.5405793 -4.0294132 0.90473104 0
3.5205545 -3.9993782 -0.090267479 0
3.5505371 -4.0194602 1.0347513 0
9.8413916 -11.118905 4.9143834 0
3.5955 -4.059504 1.1697695 0
3.6804879 -4.1444592 0.019765288 0
9.8861675 -11.07409 5.2944841 0
3.7204058 -4.1495585 0.27980608 0
3.6454155 -4.0595946 1.4398094 0
3.6803594 -4.089612 0.40982884 0
4.5704513 -5.0645804 1.8947943 0
4.1153493 -4.5496364 0.70983499 0
3.2202747 -3.5546768 -0.16513422 0
3.6102715 -3.979718 0.90487278 0
9.9206963 -10.904428 4.5046873 0
3.6202292 -3.9747641 1.0348929 0
10.050594 -11.004519 4.9297342 0
3.7601838 -4.0997934 0.14991109 0
3.7051902 -4.034811 1.4449122 0
3.7301409 -4.0498452 0.40993249 0
2.9751132 -3.2248611 -0.23505595 0
3.6750977 -3.9748957 0.78495371 0
3.6800945 -3.9698901 -0.10004625 0
3.665055 -3.9449425 1.0349742 0
3.7700541 -4.0499377 0.019973576 0
3.6650555 -3.9349434 1.2949742 0
9.8500309 -10.544975 5.5299869 0
2.7500088 -2.9399889 -0.28500447 0
3.74 -3.99 0.53499997 0
3.0350001 -3.23 -0.23999998 0
3.7049999 -3.9349999 0.78499997 0
3.7349999 -3.96 -0.099999994 0
3.7149999 -3.9300001 1.04 0
3.8150001 -4.0300002 0.020000011 0
3.855 -4.0500002 0.15000001 0
3.7750001 -3.96 1.4449999 0
3.8699999 -4.0500002 0.28 0
2.7950001 -2.9200001 -0.28999999 0
3.875 -4.04 0.41 0
3.0450001 -3.1700001 -0.23499998 0
3.925 -4.0749998 0.67500001 0
9.6899996 -10.04 4.2800002 0
3.7550001 -3.8800001 0.90999997 0
3.8199999 -3.9400001 -0.10499999 0
3.77 -3.8800001 1.04 0
9.6400003 -9.9049997 4.5950003 0
9.7799997 -10 5.0050001 0
3.8299999 -3.9100001 1.4449999 0
3.905 -3.9749999 0.28 0
3.845 -3.9100001 1.5799999 0
3.8599999 -3.915 0.53499997 0
11.45 -11.59 4.5450001 0
3.8099999 -3.845 0.78499997 0
10.49 -10.57 4.5500002 0
3.8299999 -3.855 1.045 0
9.585 -9.6199999 4.5150003 0
4 -4 0.15000001 0
2.8900001 -2.885 -0.29499999 0
4.0599999 -4.0450001 0.41500002 0
10.045 -9.9849997 3.99 0
3.8499999 -3.8150001 0.78499997 0
3.9549999 -3.915 -0.10999998 0
3.905 -3.8599999 1.1799999 0
10.19 -10.05 5.1150002 0
3.9349999 -3.8699999 1.4549999 0
4.085 -4.0149999 0.28 0
3.96 -3.885 1.595 0
3.9449999 -3.8599999 0.53499997 0
11.415 -11.145 4.4550004 0
3.895 -3.7950001 0.78999996 0
10.155 -9.875 4.3400002 0
3.905 -3.79 1.045 0
4.0300002 -3.9000001 -0.10999998 0
3.9349999 -3.8 1.1799999 0
9.9399996 -9.5749998 4.585 0
10.32 -9.9049997 5.1150002 0
3.9849999 -3.8199999 1.4549999 0
4.0450001 -3.865 0.28 0
4.02 -3.835 1.595 0
4.02 -3.8299999 0.53999996 0
10.875 -10.33 4.2049999 0
3.9749999 -3.7650001 0.78999996 0
10.09 -9.5450001 4.2649999 0
3.98 -3.7550001 1.05 0
10.155 -9.5649996 4.6350002 0
4.0799999 -3.825 0.15000001 0
3.03 -2.8399999 -0.30499998 0
4.085 -3.8150001 0.41 0
12.27 -11.445 4.6750002 0
4.27 -3.9749999 0.69 0
10.395 -9.6549997 4.3500004 0
4.0100002 -3.7149999 1.05 0
4.665 -4.3150001 -0.014999986 0
4.165 -3.835 0.28 0
3.375 -3.0999999 -0.25500003 0
4.04 -3.71 0.78999996 0
4.1950002 -3.8399999 -0.12 0
5.48 -5 0.11 0
3.0899999 -2.8150001 -0.30499998 0
4.4650002 -4.0549998 0.56 0
3.7750001 -3.425 -0.19499999 0
