# .PCD v0.7 - Point Cloud Data file format
VERSION 0.7
FIELDS x y z intensity
SIZE 4 4 4 4
TYPE F F F F
COUNT 1 1 1 1
WIDTH 1429
HEIGHT 1
VIEWPOINT 0 0 0 1 0 0 0
POINTS 1429
DATA ascii
10.070071 -11.361805 -0.0092389584 0
11.587443 -13.041351 0.35423204 0
31.404377 -35.360718 2.700093 0
3.3271856 -3.6397817 -0.7571677 0
3.3371546 -3.6396031 -0.76211262 0
3.7174463 -4.0403099 -0.74201834 0
4.2044363 -4.5697112 -0.72010005 0
4.2192712 -4.5595965 -0.71979344 0
4.2291064 -4.5495481 -0.71948493 0
6.7758164 -7.3249226 -0.60820758 0
7.2319818 -7.7887468 -0.41955653 0
8.4998808 -9.1419716 -0.24292156 0
10.21901 -10.966116 0.0021020472 0
10.294256 -10.990232 0.0016351044 0
8.675456 -9.1998405 -0.24901882 0
7.2800727 -7.6637354 -0.41097668 0
8.704669 -9.1496735 -0.24754599 0
8.7344723 -9.1393871 -0.24717864 0
8.7490149 -9.1093054 -0.24632534 0
7.3186126 -7.5686316 -0.40824148 0
7.3281665 -7.5386086 -0.40741035 0
7.074122 -7.2419367 -0.61506104 0
7.3526025 -7.5034857 -0.40635118 0
7.3621621 -7.4735823 -0.40052369 0
7.1486344 -7.2161393 -0.61915886 0
7.1633224 -7.1960492 -0.61857593 0
7.1780753 -7.1809573 -0.6181128 0
5.9766178 -5.9301615 -0.66229248 0
5.1908646 -5.113975 -0.71217573 0
5.2107615 -5.1088023 -0.71198487 0
5.2306585 -5.1036305 -0.71179402 0
4.5413747 -4.3969812 -0.7293967 0
4.5512123 -4.3869362 -0.72909343 0
4.0292664 -3.8581853 -0.74607849 0
3.6643152 -3.4821231 -0.77682483 0
12.131819 -11.68804 0.37776953 0
10.566069 -10.114506 0.026299834 0
9.1980467 -8.7456112 -0.2351847 0
10.579891 -10.034565 0.028499693 0
10.614625 -10.01923 0.028994501 0
10.629167 -9.9891577 0.029852331 0
9.271699 -8.6600971 -0.23266658 0
7.8232274 -7.2493434 -0.40320376 0
7.8429813 -7.23419 -0.4027451 0
7.8728638 -7.2289038 -0.40252706 0
4.0111561 -3.6273253 -0.19464454 0
4.0412521 -3.6368878 -0.19983312 0
4.2284527 -3.8004012 0.046309695 0
11.794334 -10.753784 1.8777819 0
11.703136 -10.642357 2.6158407 0
4.2121019 -3.7269485 -0.75204706 0
3.8630404 -3.4042177 -0.41905603 0
4.055222 -3.5671921 -0.19290212 0
4.2326422 -3.7350914 0.44826502 0
11.674717 -10.41371 2.2217851 0
4.2667942 -3.7114511 -0.75647545 0
3.8924892 -3.369137 -0.41802612 0
3.9535687 -3.4305191 0.31074849 0
11.100744 -9.7503328 1.7630936 0
4.2761402 -3.6666963 -0.75024748 0
3.9223351 -3.3547084 -0.17247358 0
11.888092 -10.339353 1.4939876 0
10.973347 -9.5409231 2.7836678 0
3.5778937 -3.0198781 -0.35433909 0
3.7093735 -3.1258368 -0.031769127 0
11.749809 -10.089402 1.8405024 0
10.622784 -9.1161947 3.0293486 0
3.6028113 -3.007586 -0.018825799 0
12.243946 -10.419848 1.9027843 0
10.727715 -9.1203413 3.0444713 0
3.4963272 -2.8917782 0.099082902 0
12.005566 -10.14455 2.6148856 0
3.3643649 -2.7540021 -0.30767658 0
3.9613554 -3.2717242 0.55513287 0
3.9198339 -3.1964293 -0.76844442 0
3.3538826 -2.719393 -0.30176857 0
3.6524775 -2.9775777 0.4222616 0
11.320479 -9.3848009 2.4636149 0
5.0461488 -4.0832014 -0.74467015 0
3.4144347 -2.7506592 0.20773999 0
10.69761 -8.784749 2.3382378 0
3.368355 -2.6844847 -0.30078241 0
3.7629707 -3.0191839 0.54145241 0
11.101052 -9.0445061 2.7571831 0
3.3985291 -2.6913035 0.0042127967 0
4.2983599 -3.4344893 0.83664119 0
5.1104226 -4.0377035 -0.74832308 0
3.4793453 -2.7450018 0.41811812 0
4.4685903 -3.5056882 -0.75049269 0
3.4637964 -2.7104061 0.20892015 0
11.027911 -8.8198595 2.7229996 0
3.8979008 -3.0372448 0.086076036 0
4.0488005 -3.1354325 -0.77652967 0
3.427917 -2.6512578 0.0053503811 0
4.0536509 -3.125452 -0.77624881 0
3.4378326 -2.6461968 0.0055061579 0
4.0685635 -3.120343 -0.77608776 0
3.4730623 -2.6658113 0.0050748289 0
4.0734143 -3.1103625 -0.77580726 0
3.4627266 -2.6410108 0.005700022 0
4.0883269 -3.1052539 -0.77564657 0
3.4473922 -2.6162727 0.0063263476 0
11.170506 -8.6759043 2.3921127 0
3.4268553 -2.581996 -0.19287765 0
4.1850195 -3.1888473 0.94297802 0
10.912889 -8.4337482 3.6783435 0
3.6190178 -2.7287703 0.6339227 0
12.255488 -9.4279461 3.7096932 0
3.4773493 -2.6028779 0.51693004 0
11.270082 -8.6236992 3.4289348 0
3.492327 -2.6027472 0.51696873 0
11.006893 -8.3801794 3.3498299 0
3.4869859 -2.5805793 0.41750005 0
5.2683001 -3.9018281 -0.7493639 0
3.456455 -2.5436196 0.31338629 0
4.6470141 -3.4092567 -0.76257432 0
3.4511087 -2.5241632 0.11382779 0
10.701744 -8.0119753 2.6036878 0
3.4861395 -2.5313771 0.0086548924 0
11.498544 -8.5632296 2.4257317 0
3.5009809 -2.5266745 -0.19125584 0
3.5670946 -2.5870738 0.73260319 0
3.5208879 -2.5240884 -0.29619351 0
3.5668764 -2.5747311 0.6279031 0
10.987786 -8.0899162 3.3124123 0
3.546406 -2.5425351 0.51866907 0
5.3471565 -3.8264606 -0.74723339 0
3.5411301 -2.525377 0.41908282 0
10.577564 -7.6999884 2.871743 0
3.4902167 -2.4641206 0.11548056 0
10.930136 -7.9152341 2.6316521 0
3.5404353 -2.4861536 0.0099596381 0
4.2664771 -2.9890494 -0.78721273 0
3.5553463 -2.4837527 -0.089977175 0
3.6618953 -2.5788918 0.84807062 0
11.050385 -7.9169812 3.6421804 0
3.6059086 -2.512255 0.52458656 0
11.301934 -8.0527239 3.3689768 0
3.5752439 -2.4706471 0.21551782 0
11.164593 -7.8933768 2.6626422 0
3.5748312 -2.4487796 -0.089020073 0
4.9878321 -3.4559066 0.7624054 0
11.18417 -7.8483024 3.3240802 0
3.5747547 -2.4331172 0.31652659 0
4.8098526 -3.2683492 -0.76855218 0
3.5744059 -2.4162593 0.011873752 0
3.7059996 -2.5187263 0.84971988 0
3.6194329 -2.4261088 -0.19338998 0
5.0372858 -3.4205511 0.7634089 0
11.928675 -8.2186546 3.5107436 0
3.6498671 -2.4448006 0.42141014 0
5.0914202 -3.3974216 -0.67141342 0
3.6142826 -2.4029324 0.31739813 0
10.984018 -7.4769893 2.92328 0
3.6644416 -2.4201033 0.21699388 0
4.8639593 -3.2081931 -0.76688695 0
3.6188004 -2.3734796 0.1180959 0
11.250008 -7.5727053 2.6511159 0
3.6538956 -2.385731 0.012811005 0
4.3642788 -2.8390737 -0.78310752 0
3.6586864 -2.3734796 -0.086898565 0
3.8054638 -2.4881535 0.86070025 0
3.6735353 -2.3659923 -0.19172388 0
5.1262994 -3.3533559 0.91537249 0
12.13118 -8.0452099 3.8906877 0
5.1511755 -3.3498404 0.77045596 0
3.7134852 -2.3681526 -0.30174252 0
3.7542615 -2.4065282 0.53262043 0
3.7032204 -2.3483534 -0.30124733 0
3.7338035 -2.3744812 0.42837143 0
12.456899 -8.1249456 3.6039989 0
3.7336578 -2.3644321 0.42363858 0
5.2148943 -3.296618 -0.67858303 0
3.7132659 -2.3374996 0.32427433 0
11.664107 -7.5271878 3.0480814 0
3.7433 -2.3448277 0.21910515 0
4.9825163 -3.1125603 -0.76920414 0
3.7027252 -2.3031545 0.12008508 0
11.133486 -7.0986423 2.5981858 0
3.7478201 -2.3153019 0.014797807 0
4.467927 -2.7485929 -0.78559577 0
3.7677324 -2.3127663 -0.090143204 0
3.8993106 -2.4126065 0.8628149 0
3.7524009 -2.2906725 -0.19462284 0
5.2597737 -3.2525268 0.92317939 0
12.014233 -7.5403576 3.8084927 0
5.2696857 -3.2474687 0.92334247 0
12.169931 -7.599504 3.8522029 0
3.9238038 -2.3826623 0.64854336 0
3.8022115 -2.2828045 -0.30438307 0
3.9387832 -2.3825359 0.64857894 0
3.8120704 -2.2727556 -0.30412355 0
3.9385798 -2.3675992 0.64895535 0
3.8068721 -2.2580049 -0.29874828 0
3.8627553 -2.3060319 0.53539252 0
12.217987 -7.471056 3.4904482 0
3.8827386 -2.3059573 0.54042387 0
5.3680925 -3.1757581 -0.68023956 0
3.8623443 -2.2788177 0.43105623 0
5.393003 -3.170428 -0.68508208 0
3.8722637 -2.2737589 0.43120447 0
5.4079165 -3.1653347 -0.68492115 0
3.8821833 -2.2686987 0.43135178 0
4.6773248 -2.7121396 -0.55427492 0
3.8870425 -2.2587018 0.43161207 0
11.610557 -6.9073968 2.9838715 0
3.8464708 -2.2169306 0.32758182 0
11.620074 -6.8723626 2.9847593 0
3.8765733 -2.2266223 0.32738736 0
11.584342 -6.8175535 2.9711111 0
3.8562512 -2.2019377 0.32798895 0
11.946518 -6.9950542 3.0520723 0
3.8912256 -2.2042394 0.22292975 0
3.9662933 -2.2315471 -0.53291023 0
3.8758988 -2.182164 0.1184434 0
12.312993 -7.1299343 2.7890165 0
3.9008746 -2.1845944 0.01338765 0
4.0262403 -2.2333026 -0.65293503 0
3.9107959 -2.1795411 0.013533205 0
3.9908664 -2.2040386 -0.64222097 0
3.905535 -2.1596756 0.014016211 0
3.9907279 -2.1941187 -0.64196086 0
3.925451 -2.1571751 -0.090927392 0
13.670236 -7.7414885 2.6752121 0
4.0209031 -2.1985295 -0.20688945 0
4.122231 -2.2765634 0.88663042 0
12.547294 -7.0665889 3.8762498 0
5.4764051 -3.0215409 0.93938804 0
12.451069 -6.9720745 3.8435061 0
5.486259 -3.0114872 0.93965697 0
13.029437 -7.2556381 3.6369538 0
4.0409374 -2.1852329 0.54873598 0
3.9848564 -2.1246295 -0.41512719 0
4.0154886 -2.153182 0.43947142 0
12.640361 -6.9453225 3.1791656 0
3.9950361 -2.1237586 0.2251195 0
4.0146322 -2.1119924 -0.52481556 0
3.9746525 -2.0967629 0.12074003 0
4.0093665 -2.0947118 -0.63441944 0
4.2361126 -2.2235699 -0.1122286 0
4.196352 -2.2162323 0.89324117 0
4.0042953 -2.0821884 -0.3039833 0
4.1557717 -2.1767313 0.66411889 0
4.0996804 -2.1183496 -0.4298282 0
4.0396562 -2.0932693 0.44100857 0
4.1145349 -2.1108286 -0.5396595 0
3.9638436 -2.0372348 0.12224697 0
4.0790334 -2.0740376 -0.64381564 0
4.0439892 -2.0593054 -0.19832534 0
4.1601562 -2.1319249 0.66525829 0
12.922769 -6.768436 3.2189276 0
4.3406849 -2.1951091 -0.0063573122 0
4.2304363 -2.1512277 0.89492655 0
13.042767 -6.7654724 3.5992391 0
4.0739479 -2.0432358 0.44231433 0
4.1990638 -2.0800529 -0.54880393 0
4.4105678 -2.1894767 -0.0061550736 0
13.342817 -6.8097863 2.5781882 0
4.2492208 -2.0894079 -0.32890847 0
4.2195649 -2.0915718 0.66633844 0
13.538573 -6.8542218 3.3423979 0
4.0831466 -1.9913968 0.12351511 0
4.1832762 -2.0232682 -0.65242517 0
4.1230531 -1.9938926 -0.20160356 0
4.6568055 -2.2750535 0.82723296 0
4.23843 -2.0324459 -0.43753126 0
4.1330976 -1.9882847 0.22869037 0
4.2079244 -1.9981035 -0.65677822 0
4.2180481 -2.0003526 -0.32171628 0
4.2688603 -2.0414565 0.67263258 0
13.344329 -6.5305986 3.2802331 0
4.1224475 -1.9413338 0.1248038 0
4.2376337 -1.9778762 -0.66124451 0
4.1975312 -1.958326 -0.20565119 0
4.2985682 -2.0212839 0.67316675 0
13.725098 -6.6030097 3.358788 0
4.1420999 -1.9163027 0.12544483 0
4.3788471 -2.0405354 0.90783274 0
13.849763 -6.5822334 3.3843961 0
4.1468296 -1.8963834 0.12594602 0
5.318891 -2.4594369 0.90328836 0
4.2971253 -1.9400253 -0.55020952 0
4.1766777 -1.886162 0.12622155 0
4.42342 -2.0103455 0.91361272 0
4.3722706 -1.9515512 -0.44540426 0
4.2568812 -1.9026064 0.23091631 0
4.2864795 -1.8930173 -0.65910161 0
4.3168483 -1.909827 -0.099315435 0
5.710104 -2.5661502 0.95099568 0
4.4421549 -1.9457338 -0.45520946 0
4.2715359 -1.8776344 0.23155466 0
13.769753 -6.2223206 2.6180329 0
4.2912049 -1.8629832 -0.20820746 0
5.9405189 -2.6125627 0.6699388 0
13.809259 -6.174818 2.9842255 0
4.7835636 -2.0588479 -0.13761824 0
4.8643928 -2.1064565 0.72154927 0
13.828391 -6.1097851 2.9858267 0
4.7480583 -2.0194266 -0.13667265 0
4.320847 -1.8274542 0.23281871 0
4.6528077 -1.9762216 0.8196063 0
4.3603835 -1.810305 -0.5469805 0
4.3604417 -1.8075714 -0.21180961 0
4.3203244 -1.790309 0.12369609 0
4.5115061 -1.8752041 0.68693292 0
4.4453206 -1.8117471 -0.67698336 0
4.3950939 -1.7849227 -0.32626501 0
4.354979 -1.7677525 0.014237702 0
4.4505644 -1.8062022 0.4584977 0
4.6165767 -1.8795497 0.93698132 0
4.4398065 -1.7671639 -0.44083276 0
4.8016548 -1.9145592 -0.13407853 0
4.3695102 -1.730215 0.12519304 0
4.5858035 -1.824872 0.69321674 0
5.1023493 -1.9918532 -0.80597377 0
4.7808871 -1.8599226 -0.37284616 0
4.755775 -1.8455188 -0.12743351 0
4.4342132 -1.7097294 0.12572819 0
4.6253295 -1.7897674 0.6990841 0
5.1619267 -1.9612919 -0.81520391 0
6.5935478 -2.5154912 -0.77772748 0
6.6083517 -2.500416 -0.77736771 0
4.8753786 -1.8241825 -0.37692258 0
5.005827 -1.860056 -0.26769474 0
4.9353504 -1.8210748 -0.26179209 0
4.4731069 -1.6326708 -0.20750025 0
4.4529195 -1.6179837 -0.20714581 0
4.5533128 -1.6465307 0.012277037 0
4.5281296 -1.6293321 0.12771294 0
4.5832891 -1.6410781 0.23749185 0
4.6385131 -1.6553549 0.46724445 0
4.7490306 -1.6941872 0.70645231 0
5.20505 -1.8168583 -0.81172037 0
6.7164407 -2.355027 -0.78383946 0
4.6075201 -1.5914882 -0.21644583 0
4.5874581 -1.5789607 0.12393636 0
4.6175041 -1.5811 0.23893255 0
4.7079024 -1.6100521 0.47335917 0
4.79318 -1.6316423 0.59291875 0
4.8482871 -1.6386894 0.71780163 0
5.2691312 -1.7466298 -0.81502724 0
5.8864756 -1.9450204 -0.79447854 0
6.795013 -2.2448034 -0.78620625 0
4.7015886 -1.5233842 -0.33983847 0
4.7014599 -1.5134647 -0.33959928 0
4.7415638 -1.5204823 -0.22471091 0
4.6963911 -1.4984086 0.12588245 0
4.8019032 -1.5345657 0.47517842 0
4.9424176 -1.5732191 0.72438335 0
5.3179755 -1.6566761 -0.81789291 0
6.8637881 -2.1496012 -0.7889477 0
4.7959752 -1.4751345 -0.22863814 0
4.7559195 -1.4630783 0.12674193 0
4.8060207 -1.4699645 0.24162781 0
4.8762441 -1.484217 0.48137724 0
4.8911719 -1.4791123 0.48150647 0
4.9010434 -1.4690669 0.48174086 0
4.9561491 -1.4760939 0.60662401 0
5.0112538 -1.4831196 0.73150814 0
5.3666468 -1.5519277 -0.81543601 0
6.0238485 -1.7398235 -0.79963422 0
6.946949 -2.0045478 -0.79055536 0
4.8847485 -1.3823023 -0.35147926 0
4.8645082 -1.3626171 -0.35103187 0
4.9296665 -1.3743241 -0.23625329 0
4.9196053 -1.3644818 0.0040360391 0
4.9396563 -1.364285 0.24411044 0
5.0902233 -1.4052612 0.61329651 0
5.4054561 -1.4571024 -0.8182379 0
7.0256886 -1.9042491 -0.79324114 0
4.9941444 -1.3338747 -0.24030575 0
4.9439764 -1.3120531 0.12527546 0
5.024251 -1.3311471 0.36492211 0
5.0743556 -1.3382145 0.48980692 0
5.1796355 -1.3573192 0.74444449 0
6.1167231 -1.5698926 -0.80071855 0
5.018342 -1.2715327 -0.35891691 0
5.0334516 -1.2738329 0.0011323988 0
5.1839519 -1.312211 0.24535015 0
5.1638985 -1.3002051 0.62071383 0
5.4690237 -1.3421825 -0.82060039 0
7.1138263 -1.7541616 -0.79481447 0
5.1529889 -1.2450935 -0.37330428 0
5.0877047 -1.218583 -0.24267474 0
5.1125741 -1.2108231 -0.36752698 0
7.1581416 -1.6989644 -0.79855943 0
6.1851177 -1.4399675 -0.80276275 0
5.5080361 -1.262275 -0.82378161 0
5.1171389 -1.1662698 0.12861827 0
5.1969967 -1.1626977 -0.25139984 0
5.1867008 -1.1403531 -0.3759394 0
7.2218547 -1.5938598 -0.80119693 0
6.234015 -1.3499833 -0.80573523 0
5.5470023 -1.1774744 -0.82187772 0
5.3117189 -1.1295594 0.3745065 0
5.2713695 -1.1025572 0.25007331 0
5.2310772 -1.0805582 0.12553853 0
5.2558937 -1.0678245 0.00078436732 0
5.3207603 -1.0620126 -0.25415543 0
5.3105221 -1.0445833 -0.38379952 0
7.2949238 -1.433972 -0.80264986 0
6.3023825 -1.2150787 -0.8077383 0
5.6256051 -1.0623069 -0.82931864 0
5.5760002 -1.0654716 0.78101897 0
5.5908766 -1.0553735 0.78124082 0
5.5255284 -1.0284635 0.64681017 0
5.615633 -1.0353346 0.7866838 0
5.6255102 -1.0252944 0.78690648 0
5.665442 -1.0199156 0.78702104 0
5.6402097 -1.0002689 0.78745139 0
5.6600866 -0.99011552 0.78767025 0
5.7100205 -0.98472601 0.792781 0
6.3755908 -1.0651271 -0.81445324 0
7.3924775 -1.2290335 -0.80816483 0
5.5136914 -0.89317 -0.40048966 0
5.5235715 -0.88314497 -0.40027049 0
5.5635638 -0.88037926 -0.27018425 0
5.5684438 -0.87040865 -0.26996437 0
5.5933208 -0.86011559 -0.2747483 0
7.4564114 -1.138849 -0.81121588 0
5.7079377 -0.83785844 -0.83442116 0
5.577857 -0.81358027 0.12635468 0
5.6576653 -0.80472398 -0.27856258 0
7.5054722 -1.0587329 -0.81450212 0
5.7271805 -0.77311057 -0.83303094 0
5.6472044 -0.75820374 0.12753168 0
5.7320123 -0.7492249 -0.28238663 0
5.7217817 -0.73175317 -0.41704151 0
6.482605 -0.81050277 -0.81898546 0
5.7717185 -0.71478891 0.25846744 0
5.7664299 -0.69459909 -0.01116389 0
5.7810802 -0.6714375 -0.4207727 0
6.5167947 -0.74052083 -0.82250559 0
5.78056 -0.63345039 -0.83506441 0
6.1265669 -0.69264746 0.83398783 0
5.8106184 -0.62225544 0.12538798 0
5.9103732 -0.60799456 -0.29443559 0
7.5821357 -0.76958925 -0.81338859 0
5.8196988 -0.55848396 -0.83849275 0
5.8699241 -0.56200725 0.12664059 0
5.9947333 -0.55240703 -0.29828617 0
7.5911713 -0.68502295 -0.81161952 0
5.8339586 -0.49370176 -0.84213936 0
6.0143943 -0.51346165 0.2626473 0
5.9940562 -0.4883084 -0.016889185 0
6.0888119 -0.47388628 -0.45171174 0
6.6140041 -0.49594346 -0.82740879 0
6.123704 -0.45266774 0.26387504 0
6.0933676 -0.42754611 -0.020661205 0
6.203124 -0.41289845 -0.46048704 0
6.6632147 -0.42580777 -0.83097506 0
5.8723273 -0.34922212 -0.84415853 0
6.1476893 -0.36508557 0.12063734 0
6.2423954 -0.34563506 -0.31909034 0
6.3522668 -0.33644173 -0.47897002 0
7.7680163 -0.40442598 -0.83089197 0
7.7727947 -0.3844822 -0.83049023 0
6.7118759 -0.30588678 -0.83854079 0
6.7217097 -0.29088062 -0.83823931 0
5.9059939 -0.22961132 -0.84672654 0
6.3865023 -0.25603792 0.26781362 0
6.3212299 -0.23404063 0.12324958 0
6.371057 -0.22070855 -0.026526868 0
6.4157715 -0.19946466 -0.33117846 0
7.8610826 -0.22931014 -0.8373847 0
6.7853851 -0.17080773 -0.84583724 0
5.9148417 -0.12527435 -0.8446188 0
6.5652771 -0.14477494 0.2699908 0
6.5099473 -0.11963066 -0.034550279 0
6.5396662 -0.098581433 -0.33920226 0
6.8244619 -0.083950177 -0.68908083 0
5.918972 -0.045799892 -0.84302914 0
6.589179 -0.049221382 -0.033174276 0
6.7388868 -0.026532447 -0.35784516 0
6.7036691 -0.0090588629 -0.51251602 0
6.8683701 0.014150876 -0.85718668 0
6.6784177 0.023448387 0.1182584 0
6.8381271 0.046217345 -0.20641592 0
6.7328072 0.070773304 -0.51095617 0
6.8275189 0.093019374 -0.8456192 0
6.7776041 0.099068925 0.11970696 0
6.917263 0.12668985 -0.20987085 0
6.951982 0.14818566 -0.53952658 0
6.8267202 0.16750354 -0.84416187 0
6.9017401 0.18004282 0.11623651 0
6.9364629 0.2014298 -0.20842195 0
7.1261163 0.22991543 -0.55800664 0
7.075851 0.25228637 -0.71758831 0
6.8257155 0.26188618 -0.84233356 0
5.9407659 0.25244063 -0.84219193 0
30.553671 1.0708405 0.28475666 0
7.0953488 0.31147066 0.11370029 0
7.3050661 0.33685857 -0.060920864 0
7.9645352 0.38771749 -0.27522889 0
7.1596456 0.37129673 -0.39027074 0
7.1593781 0.39436454 -0.55986321 0
7.483973 0.43167755 -0.77430964 0
6.8390913 0.41610733 -0.84438539 0
5.9992943 0.3922911 -0.84953797 0
7.3085961 0.47430354 -0.22833636 0
7.4131508 0.51022375 -0.7627902 0
30.01428 1.9598607 -0.39838853 0
8.2421455 0.61208826 -0.68114626 0
6.0333076 0.48715883 -0.85775113 0
16.590767 1.270276 -0.48167709 0
9.5154457 0.78352982 -0.60336113 0
7.3118248 0.63805491 -0.74534535 0
6.0325899 0.55667049 -0.85644448 0
17.443146 1.5290353 -0.51716042 0
9.504323 0.89282453 -0.60132182 0
7.261014 0.71691531 -0.73885667 0
16.85708 1.6318108 -0.49006644 0
8.3245316 0.86679095 -0.69142735 0
6.0464187 0.67113382 -0.8593204 0
9.4378614 1.0362254 -0.59365213 0
6.9001451 0.79956824 -0.85223019 0
12.104342 1.392728 -0.55295801 0
7.1544619 0.8695125 -0.72100604 0
20.893515 2.4901114 -0.66567659 0
8.2127361 1.0442655 -0.67313731 0
6.9439869 0.91448265 -0.86014426 0
12.222284 1.5981708 -0.55926764 0
7.0983186 0.98312795 -0.71392107 0
24.721077 3.2735822 2.0727932 0
9.6395435 1.367015 -0.60770893 0
7.0977263 1.0427157 -0.7128464 0
6.078867 0.92491227 -0.86470318 0
24.483404 3.5358493 1.4874383 0
9.6034622 1.4760525 -0.6057483 0
8.2252579 1.2930628 -0.67366338 0
6.882019 1.1124253 -0.85156226 0
23.842125 3.6835454 3.1504645 0
25.977995 4.0925751 2.1820297 0
7.5858021 1.2521784 0.65597844 0
25.662292 4.1643391 2.163358 0
6.0974417 1.0693129 -0.8721329 0
7.0708175 1.2362211 -0.70939171 0
8.1239052 1.4310733 -0.66619408 0
9.7261057 1.7163804 -0.61653244 0
13.120113 2.325778 -0.6165843 0
25.259407 4.441771 0.34801543 0
7.5047803 1.3576363 0.8328799 0
6.7754803 1.2699568 -0.8337512 0
7.3694105 1.3831906 -0.40183023 0
7.4293036 1.399349 0.12351866 0
7.568994 1.4343499 0.47915399 0
7.4691501 1.4220349 0.82901025 0
24.608318 4.5913997 3.8712413 0
6.7198162 1.3388022 -0.82753801 0
7.0889778 1.425463 -0.71608579 0
13.172368 2.6101913 -0.62166286 0
53.739799 10.53095 0.44825935 0
24.591108 4.8205752 3.8751814 0
24.346781 4.7713346 6.2347431 0
21.001131 4.2693572 -0.65438581 0
24.01112 4.8208513 3.7952554 0
23.551649 4.7720814 4.3045568 0
24.190041 4.9411077 5.0074887 0
24.828417 5.1142964 5.7504621 0
53.248577 11.18852 0.45952162 0
24.013582 5.0755033 2.6494262 0
7.0326562 1.5638953 -0.70869339 0
25.279472 5.4738541 -0.23436239 0
24.731571 5.2995124 4.5184026 0
6.9924278 1.5882035 -0.7032727 0
24.240746 5.3524966 0.36377251 0
24.884731 5.4814563 3.3412971 0
6.093998 1.4270319 -0.87592697 0
8.0945654 1.8832656 -0.66338694 0
51.833637 11.734869 1.7040331 0
25.072632 5.7023687 3.3699982 0
6.0985742 1.4718726 -0.88016772 0
6.5424833 1.5848752 -0.8032937 0
8.0938654 1.9578242 -0.66213095 0
21.343222 5.1050982 -0.66030157 0
25.19503 5.9774556 3.3995965 0
6.5071177 1.62414 -0.79762816 0
6.9858837 1.7522162 -0.70550275 0
10.2181 2.5536053 -0.6622951 0
53.615189 13.158624 1.7726634 0
25.511848 6.3099074 2.8300273 0
24.788563 6.147223 4.5725756 0
6.9004378 1.8007942 -0.69468296 0
14.037824 3.616358 -0.67478108 0
23.420416 5.9522882 3.1941898 0
6.9600096 1.8463541 -0.70393193 0
21.413774 5.5841403 -0.66237295 0
24.007414 6.2566137 1.5339817 0
6.0619144 1.6502498 -0.87718058 0
7.0293469 1.9169087 -0.71276557 0
21.187962 5.676137 -0.65087008 0
25.148039 6.7207575 2.2066941 0
6.0714507 1.7001406 -0.88135445 0
6.3805323 1.7963527 -0.77975714 0
10.300136 2.8731892 -0.67202282 0
46.684032 12.833498 1.6121784 0
23.919559 6.5842519 3.8696177 0
7.0084853 2.0110972 -0.71122062 0
14.458241 4.1095066 -0.70670152 0
47.763004 13.477576 1.6476828 0
24.480902 6.9635887 2.1705904 0
24.05702 6.859448 3.9040835 0
7.112546 2.112052 -0.7295723 0
6.2996478 1.8946091 -0.76815605 0
6.0701356 1.8442446 -0.8840034 0
7.1220455 2.1669242 -0.73368406 0
7.1468139 2.1920636 -0.73327589 0
8.1537619 2.5109146 -0.67803693 0
8.1835308 2.5361817 -0.68263257 0
10.032904 3.1237197 -0.65298855 0
15.187494 4.7309203 -0.75663936 0
21.887396 6.8301573 -0.68221486 0
21.991558 6.9210458 -0.68575156 0
15.25132 4.8612266 -0.76456499 0
15.550071 4.9943027 -0.78240728 0
10.400474 3.3872273 -0.68874967 0
10.340402 3.3964357 -0.68361127 0
10.449835 3.4575393 -0.69262731 0
7.159843 2.4112144 -0.74477625 0
6.0481286 2.0677485 -0.89042497 0
10.379107 3.5412712 -0.68632209 0
6.1225138 2.1358089 -0.74932015 0
16.030014 5.5530491 -0.81853855 0
7.2234979 2.5613589 -0.75740433 0
56.25116 19.660408 1.9818487 0
10.327682 3.7049024 -0.68378985 0
6.0667448 2.2246056 -0.74794579 0
16.306559 5.9399438 -0.83747768 0
8.5129414 3.1577177 -0.73279059 0
56.541283 20.785027 2.0142055 0
8.3380136 3.1553786 -0.7128855 0
6.0159845 2.3133748 -0.74159002 0
8.5018692 3.2820218 -0.73589432 0
5.9258666 2.3295646 -0.88138783 0
10.469124 4.110043 -0.70253241 0
7.1908693 2.8644593 -0.76275051 0
5.975184 2.407325 -0.74016964 0
7.1656704 2.8889315 -0.75739396 0
7.1855636 2.9020817 -0.037107617 0
7.2105317 2.9073191 0.86307085 0
5.949851 2.4468029 -0.73957849 0
7.0955567 2.9059618 -0.032084346 0
7.1453981 2.9245191 0.68328458 0
7.1303759 2.9284284 1.038371 0
7.0803947 2.9278793 1.0383409 0
7.0798855 2.9843495 -0.57097518 0
5.8146 2.4821055 -0.86913157 0
7.0200181 2.9741247 1.2140199 0
7.7866621 3.3358865 0.32970533 0
7.6720829 3.2919095 1.1090716 0
7.0392017 3.0664253 -0.74979055 0
7.3480153 3.1946204 0.14235863 0
7.7414598 3.3623183 1.1151509 0
7.0140071 3.0909855 -0.74944472 0
7.3875356 3.2498081 0.14319351 0
7.6415029 3.3613024 1.1100798 0
6.9887667 3.1204638 -0.74401915 0
7.3622952 3.2793863 0.14361495 0
6.9838872 3.1081934 1.2159801 0
5.7236371 2.6002238 -0.86242366 0
6.948525 3.1518438 -0.5635711 0
7.3219357 3.3237343 0.14424475 0
6.9236612 3.1374917 1.2113709 0
6.9232855 3.1814108 -0.56314898 0
7.3316503 3.3576186 0.51477689 0
6.7939348 3.1106052 1.5509319 0
7.3163872 3.389509 -0.22983512 0
8.2724075 3.8188915 0.97214413 0
5.8722506 2.759093 -0.73999619 0
7.296174 3.4161236 -0.044444948 0
8.2422009 3.8450308 1.1825205 0
5.6678405 2.6988719 -0.85601735 0
6.8576183 3.2651293 -0.55697489 0
7.2608204 3.4605141 -0.043826401 0
7.2309127 3.4510796 0.51606154 0
6.7131753 3.2044623 1.5472363 0
6.8371949 3.3175545 -0.73624885 0
7.2304001 3.5129383 -0.2281076 0
7.2203965 3.5137119 0.33194265 0
6.8022785 3.3076646 1.3887701 0
5.8112979 2.877687 -0.73832321 0
6.7868609 3.360889 -0.37563375 0
7.1501646 3.545778 0.14733361 0
6.7818527 3.3601613 1.2094907 0
5.5819068 2.8170617 -0.8493737 0
6.7614231 3.4160743 -0.72989404 0
6.7414203 3.417901 -0.5498749 0
6.7263703 3.4247782 -0.36977527 0
7.3932314 3.7676437 0.14567758 0
7.4478788 3.8068874 0.53130889 0
6.7112541 3.436197 1.3905262 0
5.521419 2.8809471 -0.84851682 0
5.7452412 3.0111499 -0.73647428 0
5.765029 3.036319 -0.74110615 0
5.5011544 2.9154046 -0.84305274 0
6.5462847 3.4418707 1.5454705 0
6.6456418 3.5152593 1.3865716 0
6.6504154 3.5430162 1.2119529 0
7.9288182 4.2785997 -0.28671196 0
6.6050801 3.5925364 -0.36753145 0
6.5899954 3.6050808 -0.54239142 0
6.5848203 3.6277087 -0.71709359 0
5.8432994 3.2465758 -0.76810408 0
5.4102969 3.0285733 -0.8365556 0
6.4402552 3.5753253 1.5422188 0
6.5445738 3.6537302 1.3833879 0
6.5294447 3.6712821 1.2086046 0
7.8075976 4.4414043 -0.27960131 0
6.4990873 3.7255633 -0.36081275 0
6.4839611 3.7430842 -0.53559804 0
6.4887438 3.770859 -0.71522498 0
6.4687514 3.7700114 -0.36023387 0
6.4686804 3.7767663 0.15989405 0
6.4487844 3.7601376 1.2047222 0
6.2296338 3.6803429 -0.85176289 0
6.4783072 3.8244209 -0.014464766 0
6.4633636 3.8127856 1.0354409 0
6.2243204 3.7200994 -0.85122085 0
6.4332342 3.8361073 0.16065875 0
6.453094 3.847548 1.0359004 0
6.2240529 3.7549803 -0.85575819 0
7.6662812 4.62222 -0.48233452 0
7.6811705 4.6278596 0.76285189 0
6.382997 3.8640561 1.2060554 0
7.6708689 4.6675191 0.76836628 0
6.6114612 4.0404954 1.2386996 0
5.2336731 3.2500839 -0.82873809 0
6.1933022 3.854197 -0.85946274 0
7.5856385 4.7094469 -0.066236794 0
7.6502361 4.7487397 0.97944057 0
5.2134233 3.2846308 -0.82830775 0
8.1371365 5.1150861 -0.7651813 0
7.5254993 4.7290349 0.55398512 0
7.5353398 4.7443805 1.1792428 0
7.5152917 4.7509604 1.3843164 0
22.808867 14.512017 -1.391385 0
10.731514 6.8935952 -0.80321264 0
8.1259995 5.2644811 -0.77322829 0
6.1570401 4.0230532 -0.8672899 0
6.1023011 3.9755337 1.5321764 0
7.5438476 4.9354539 1.4017683 0
7.5486112 4.965344 1.4071703 0
5.1074839 3.4175355 -0.82169414 0
7.1803322 4.7966852 -0.86071765 0
8.2588606 5.5282288 -0.33456942 0
8.2638226 5.5219297 1.0554328 0
6.1311178 4.1472178 -0.87070692 0
8.1938372 5.5408802 -0.55952692 0
8.1689396 5.5159988 1.0502181 0
5.0671091 3.4717343 -0.82105422 0
8.1736288 5.5395455 2.4556761 0
8.029211 5.512383 -0.7751708 0
8.0388937 5.552434 -0.77962601 0
7.1391306 4.9605627 -0.86366212 0
20.194553 14.052482 -1.2313409 0
8.1226273 5.7129574 -0.79245353 0
19.795519 13.972928 -1.2030345 0
8.067399 5.7093301 2.7026935 0
19.312008 13.832657 -1.1756382 0
6.0393381 4.3951106 -0.87766981 0
8.3346386 6.0895963 -0.83232749 0
18.897232 13.857697 -1.1510838 0
6.0236983 4.4846392 -0.88658011 0
8.8949337 6.6553102 -0.91923451 0
18.63641 14.004321 -1.1397283 0
6.0278893 4.5943413 -0.89520133 0
8.8639851 6.7895288 -0.92262733 0
18.072735 13.902988 -1.1070758 0
5.9526105 4.6431346 -0.88974071 0
8.8380041 6.9288635 -0.93096542 0
16.88331 13.30551 -1.0267589 0
5.9071198 4.7172608 -0.88891518 0
8.8070297 7.0680838 -0.93432355 0
17.496897 14.105903 -1.0857816 0
5.86659 4.7965083 -0.89302468 0
8.7661533 7.1972218 -0.93784976 0
17.290972 14.268162 -1.0792713 0
5.8310227 4.8807979 -0.89707327 0
8.7252436 7.3314319 -0.94632292 0
17.070185 14.415314 -1.0730035 0
5.7955041 4.9600196 -0.8962059 0
8.6892986 7.4706159 -0.94974029 0
16.601202 14.350024 -1.044847 0
5.7549906 5.0392737 -0.90035081 0
8.6334505 7.5996304 -0.95332789 0
16.981089 15.013062 -1.086149 0
5.6946535 5.0982895 -0.8998009 0
11.882867 10.673393 -1.0544027 0
4.9348903 4.4866381 -0.90881467 0
17.062531 15.508102 -1.1101537 0
5.6490169 5.197412 -0.9037447 0
43.245174 39.742184 -1.8876224 0
6.690474 6.2311683 -0.91409695 0
5.608654 5.2566957 -0.90314889 0
6.6801805 6.2758784 -0.91360974 0
4.839282 4.5900364 -0.90782213 0
10.911361 10.352416 -0.9755919 0
6.6297655 6.3451238 -0.91793156 0
4.8139038 4.6495428 -0.91219676 0
16.723747 16.123102 -1.1139624 0
8.4642525 8.2361593 -0.98135233 0
8.4590597 8.2660694 -0.9860332 0
6.5789843 6.4691625 -0.92164528 0
40.860245 40.124481 2.1755059 0
8.413414 8.3702297 -0.98497498 0
4.7481484 4.7732735 -0.91595948 0
16.510941 16.579966 -1.1243793 0
46.462616 46.770695 -2.1337774 0
10.088223 10.247751 -0.91403496 0
10.03334 10.24217 -0.91424441 0
8.3471708 8.5690794 -0.99792027 0
8.3320284 8.5938339 -0.99768329 0
4.6626735 4.8618579 -0.91518724 0
38.648727 40.131184 0.83917892 0
39.302094 41.038017 -1.7939062 0
16.163748 16.990307 -1.1207814 0
8.2808475 8.7828388 -1.0056973 0
4.6072688 4.9359379 -0.91951358 0
16.082411 17.214056 -1.1285435 0
9.8313026 10.599089 -0.92084837 0
6.3365645 6.8851948 -0.93764603 0
38.918995 42.204617 4.8780932 0
15.836995 17.341093 -1.1229019 0
6.301075 6.9695621 -0.9418273 0
5.2105403 5.8051248 -0.91803372 0
15.671334 17.484041 -1.1218289 0
7.653069 8.6053495 -0.94460046 0
6.2454786 7.073668 -0.94583428 0
37.68362 42.5877 4.8433652 0
15.37142 17.550611 -1.1120504 0
7.4684677 8.5930986 -0.93032062 0
7.4285312 8.5926676 -0.93043673 0
6.1699429 7.177515 -0.94995153 0
40.276718 46.717793 8.1268082 0
15.358465 18.014719 -1.1270853 0
5.054564 5.9976301 -0.9214294 0
9.3535767 11.14756 -0.92638183 0
5.0193753 6.0371389 -0.92611957 0
36.166348 43.438255 2.1773472 0
9.2927895 11.286635 -0.93007565 0
4.9740715 6.0964084 -0.92562199 0
19.463057 23.82379 2.0344894 0
33.510696 41.291748 -1.6399158 0
14.544797 18.04073 -1.0945634 0
6.7655549 8.4646835 -0.86903739 0
4.8937416 6.1702228 -0.92509007 0
4.8836675 6.1851192 -0.92996836 0
6.6608586 8.4484806 -0.86458039 0
9.2349787 11.745323 -0.95537233 0
9.2049074 11.764961 -0.95526206 0
18.520979 23.703402 -0.10514832 0
18.891571 24.227741 2.0317616 0
4.1550956 5.3937731 -0.9259702 0
6.5506949 8.5070286 -0.85934222 0
19.602905 25.436863 -0.12790099 0
17.706379 23.025068 2.6147768 0
4.7782402 6.2835608 -0.92928445 0
14.330351 18.807489 -1.1221743 0
18.259396 23.977356 2.0018144 0
4.0998583 5.4479122 -0.92558992 0
14.170942 18.765783 -1.1132238 0
19.084465 25.312294 1.3488889 0
17.806841 23.671238 4.0519719 0
6.375701 8.5598774 -0.85441041 0
18.266514 24.494688 -0.10777494 0
17.607552 23.662897 2.6511066 0
4.0396647 5.4970164 -0.92528486 0
9.017251 12.247196 -0.97587359 0
17.982292 24.442593 0.60061538 0
17.778616 24.213995 3.402514 0
5.256319 7.230803 -0.87755382 0
17.951151 24.675644 -0.81708038 0
18.207672 25.064857 2.0529845 0
17.143158 23.675716 4.004499 0
6.2153873 8.662755 -0.84894466 0
17.513597 24.407219 -0.096538723 0
16.765854 23.410883 2.6002586 0
4.5972986 6.490931 -0.93776572 0
13.654001 19.244705 -1.1151612 0
18.411617 25.965111 2.1031435 0
3.9292123 5.6053786 -0.92956436 0
13.568824 19.303726 -1.114897 0
18.350605 26.144264 2.109798 0
3.8991776 5.6199794 -0.92951679 0
18.162039 26.071285 -0.8617717 0
16.356083 23.512125 2.5847011 0
3.8790669 5.6446548 -0.92933941 0
13.522051 19.607908 -1.1269536 0
18.238762 26.482653 2.122813 0
3.8540332 5.6592956 -0.92929268 0
8.7985897 12.909041 -1.0098271 0
17.080196 25.082951 0.60374045 0
16.708431 24.556017 4.7719054 0
5.9399858 8.8193417 -0.84837806 0
16.129419 23.901766 1.2577698 0
3.8088524 5.703681 -0.93400633 0
17.033533 25.415468 -0.81806827 0
16.84465 25.139965 4.1384397 0
5.8452935 8.8031979 -0.83893263 0
17.748598 26.677921 2.1178625 0
16.447308 24.750204 6.2032146 0
17.125027 25.926535 -0.10741237 0
16.204706 24.527082 4.7295461 0
5.7950687 8.8575211 -0.83857834 0
17.60778 26.861399 2.1191528 0
16.118889 24.613176 6.1454368 0
12.995758 20.00205 -1.130007 0
15.169524 23.3487 3.1732337 0
4.1286588 6.4299607 -0.89022851 0
16.671272 25.863029 0.61008561 0
16.220623 25.156651 5.5210643 0
8.3881989 13.11928 -1.0043451 0
15.473819 24.18815 2.5930338 0
4.0441384 6.3838787 -0.87606871 0
16.812296 26.463589 0.61675608 0
15.674749 24.683687 5.4039731 0
12.764795 20.244431 -1.1335026 0
15.59502 24.71574 4.0089355 0
5.575161 8.9199276 -0.83382547 0
15.653687 24.981981 1.9718415 0
15.69201 25.068844 6.1782904 0
17.189505 27.649961 -0.88462484 0
15.078911 24.248959 4.6020193 0
5.4558091 8.8585567 -0.81996202 0
15.626535 25.317434 2.6801631 0
15.857492 25.714064 7.0355701 0
16.218708 26.477119 -0.10562903 0
15.432239 25.180674 5.4529715 0
12.383741 20.24328 7.3502688 0
15.016632 24.666245 3.9609675 0
12.76836 21.01346 6.3797088 0
14.917235 24.675934 1.9355928 0
15.844432 26.241877 6.3908353 0
16.111755 26.840706 -0.10743886 0
3.5774083 6.0203452 -0.95668554 0
26.486504 44.378345 -1.565635 0
15.240604 25.518433 5.4855514 0
12.252097 20.556355 7.4128723 0
12.173503 20.504995 3.8866692 0
7.9913902 13.564596 -1.016508 0
12.084004 20.476461 3.3109858 0
7.946527 13.559084 -1.0117582 0
12.043854 20.516008 3.3162093 0
5.265069 9.0512247 -0.82881522 0
15.573207 26.70462 2.7738988 0
3.6750071 6.3741879 -0.84268665 0
12.121851 20.977266 -1.1488999 0
14.969149 25.860537 5.5177808 0
11.813835 20.461403 6.7299519 0
12.367058 21.528807 2.8627872 0
5.150372 9.044879 -0.8193754 0
14.414891 25.255657 1.9492027 0
3.3040631 5.8518295 -0.90458 0
11.916808 21.065151 -1.1489273 0
11.703551 20.675915 3.8763137 0
10.991941 19.471285 5.8263721 0
14.249672 25.359064 1.949473 0
11.001189 19.590994 5.8526087 0
14.411712 25.784868 1.9744534 0
4.0386405 7.2857485 -0.79695547 0
14.39105 25.899525 1.9805351 0
11.236772 20.242626 5.4551816 0
11.793324 21.272732 9.4180641 0
11.591351 20.99292 5.6442785 0
11.738476 21.272449 9.407774 0
3.4556601 6.3514442 -0.82388341 0
11.688446 21.297079 9.4077845 0
3.9389994 7.2645621 -0.78760397 0
12.039474 22.151758 1.1374803 0
4.8514743 8.9815273 -0.80136096 0
11.85117 21.901041 2.2891591 0
4.8610263 9.0515671 -0.80561054 0
11.421391 21.230396 1.6654978 0
10.566882 19.647882 5.8161864 0
11.361586 21.224916 1.6601433 0
10.359165 19.35738 5.7273159 0
11.212842 21.073853 1.6479849 0
4.855238 9.1864367 -0.8193028 0
11.769428 22.224787 2.3119771 0
11.906238 22.485535 7.2255702 0
11.512202 21.846149 2.8520429 0
7.389544 14.112823 -1.0287389 0
11.48183 21.876514 4.022212 0
11.485613 21.912106 7.6529207 0
11.234489 21.513361 4.5324807 0
22.162338 42.663105 -1.4374297 0
11.647787 22.406914 5.3135381 0
11.184837 21.631664 0.54333818 0
3.7294891 7.2670383 -0.77352917 0
10.710594 20.819839 1.6231478 0
4.6709671 9.1393824 -0.80561304 0
11.21275 21.878651 2.8409541 0
7.229486 14.1911 -1.0287292 0
10.625329 20.817303 3.8177159 0
11.029969 21.740871 -1.1563377 0
3.0435393 6.0434017 -0.91383636 0
10.643044 20.957972 9.1145487 0
11.027878 21.796818 5.7445693 0
10.584675 21.050135 1.0797907 0
11.347268 22.541861 7.1684961 0
10.401431 20.747454 3.2409697 0
11.173996 22.303919 7.715323 0
10.6668 21.364542 4.4633155 0
10.709917 21.468952 8.664897 0
3.1462343 6.3825488 -0.805004 0
10.383752 20.919273 9.6779766 0
3.5599477 7.2600536 -0.76438367 0
10.315664 20.976185 1.6227883 0
4.4862142 9.1772871 -0.80112624 0
12.251387 25.0116 3.1817245 0
11.225166 22.917183 7.8865824 0
10.40764 21.332739 4.4367657 0
20.233036 41.690571 -1.376233 0
3.081275 6.4017773 -0.80510616 0
10.17892 21.000439 9.0477743 0
3.3865204 7.0680809 -0.7320956 0
10.214191 21.264936 1.6351517 0
4.4602985 9.3419304 -0.81462014 0
10.085405 21.075939 2.7126496 0
9.7098475 20.313557 6.4236813 0
10.099444 21.230772 2.7292371 0
6.8585925 14.50212 -1.0374542 0
11.763483 24.845257 3.7877102 0
6.7743435 14.411296 -1.0287473 0
10.137243 21.537088 3.882442 0
9.9143982 21.083307 7.817245 0
10.549898 22.513876 5.2393227 0
10.486454 22.499506 0.5485068 0
4.2370677 9.139555 -0.7876848 0
10.037378 21.604692 2.7575865 0
9.7750635 21.032715 7.7810574 0
10.986527 23.723969 5.4933004 0
10.192692 22.026411 9.4028425 0
10.675484 23.148355 6.6061354 0
9.9915514 21.7857 2.2141323 0
6.6585588 14.59505 -1.0375134 0
10.187555 22.300896 3.9901493 0
10.176418 22.295542 8.2103834 0
2.837631 6.2857671 -0.93743742 0
9.3009825 20.586855 -0.00099694729 0
3.3000278 7.3569641 -0.75966632 0
9.5856991 21.289537 1.6222571 0
6.5930667 14.709382 -1.0467365 0
9.9932928 22.264507 3.9738007 0
18.7453 41.971794 -1.3608602 0
9.5197458 21.314676 4.9324975 0
9.9614553 22.32905 9.4696484 0
3.200896 7.2558575 -0.74616742 0
9.524291 21.553696 1.6345329 0
4.2045956 9.5740223 -0.82360542 0
9.2281723 20.984232 2.6675258 0
6.4678669 14.79807 -1.0464808 0
9.8228092 22.422928 3.9844651 0
10.895944 25.028555 -1.3298963 0
2.7573166 6.3747845 -0.94696081 0
9.3728275 21.551374 8.4941053 0
10.307844 23.776731 6.0753961 0
9.2752466 21.528122 1.0780128 0
4.0998759 9.5729475 -0.82413232 0
9.0972309 21.202883 2.6789751 0
9.9369278 23.1737 7.7977123 0
10.301347 24.110737 4.8733039 0
9.5001249 22.369177 -0.58772528 0
2.8055403 6.6483998 -0.82404661 0
8.9925556 21.287262 0.52924186 0
9.4386835 22.317785 6.2918406 0
9.5179548 22.632347 1.6899377 0
8.8280764 20.990952 6.4958625 0
8.7843304 20.990759 2.6453102 0
9.7515326 23.322121 7.8181968 0
10.209394 24.511599 4.3016715 0
10.008307 24.180309 -1.2626313 0
2.6619523 6.4786296 -0.9564116 0
8.8205032 21.371088 7.7595596 0
8.8159189 21.429502 4.9000459 0
9.0114298 21.942989 8.5710535 0
8.844655 21.607702 5.4968929 0
8.7322063 21.469824 0.52963763 0
3.9246006 9.701025 -0.82878661 0
9.281702 22.928328 2.2765889 0
9.417695 23.275335 7.7660351 0
10.042525 24.904654 4.3445954 0
8.9272451 22.273928 -0.57659876 0
2.6705568 6.7067928 -0.82415819 0
8.6737995 21.670101 9.0466852 0
2.9946384 7.5634141 -0.7692107 0
8.6600437 21.847576 1.0779197 0
3.8150222 9.6798191 -0.81955647 0
9.6073742 24.364044 2.3921156 0
5.966742 15.22303 -1.0649346 0
9.6161423 24.514593 3.6386249 0
8.7156277 22.237524 8.0073414 0
9.221859 23.617144 5.3332562 0
8.6606216 22.235086 8.6170483 0
8.7100382 22.444616 5.6642866 0
8.3863802 21.745377 1.0705307 0
3.7249939 9.7238693 -0.81956673 0
8.7931519 22.909481 2.258853 0
8.256341 21.5142 7.147953 0
9.9314451 25.986818 4.48943 0
9.1314402 24.057167 -1.2383785 0
8.9727468 23.63743 4.7068305 0
8.7179031 23.116798 -0.60457468 0
2.491374 6.6566315 -0.97555625 0
8.5892239 22.924076 -0.022085637 0
2.5254247 6.7951188 -0.82903063 0
8.4391098 22.560452 9.3290186 0
8.5032768 22.837307 5.7269769 0
8.3841667 22.575096 9.3288765 0
2.4954543 6.8047686 -0.82910013 0
8.3440151 22.619726 9.3390818 0
8.3394394 22.716534 5.6899509 0
8.4039526 23.035904 0.54298604 0
2.759908 7.625833 -0.76980925 0
8.0643187 22.252222 1.0836794 0
2.7596557 7.670814 -0.77439308 0
8.4216518 23.420815 0.54678065 0
2.4403775 6.8441052 -0.82901049 0
8.0999079 22.610735 8.6726856 0
8.919878 25.058571 3.6701429 0
8.6780262 24.46213 6.7184892 0
8.2667599 23.479462 0.54648745 0
2.4052203 6.8887067 -0.83377385 0
8.1851845 23.363491 8.930377 0
8.7645359 25.160065 4.3103018 0
2.6841416 7.794971 -0.78359449 0
8.1855364 23.813509 -1.20579 0
8.0764093 23.579638 1.7064086 0
8.7612963 25.714025 4.3905764 0
7.7845087 22.96735 5.6993585 0
4.4081521 13.14773 -0.86311269 0
16.909927 50.644241 -1.6322098 0
7.7978511 23.441074 2.2685728 0
2.2264674 6.7685695 -0.98088646 0
7.6188111 23.165792 5.7303419 0
4.2883706 13.171576 -0.86355972 0
16.352448 50.489555 -1.6217654 0
16.188496 50.388214 -1.618611 0
16.098341 50.467468 -1.6234275 0
7.6693945 24.268929 -1.2242755 0
4.1189222 13.159897 -0.85459447 0
4.0741868 13.134515 -0.85506082 0
2.9381952 9.5556841 -0.78040624 0
2.4092813 7.9070258 -0.78901958 0
2.4040055 7.956974 -0.79356754 0
2.1541917 7.190989 -0.86724555 0
15.259155 51.301304 4.5949636 0
2.0066903 6.8361011 -0.98140669 0
2.114017 7.2405667 -0.87198436 0
1.9817232 6.8457947 -0.98148119 0
1.9715085 6.8857107 -0.98613119 0
1.9516567 6.8704553 -0.98139262 0
1.9366417 6.8803411 -0.98637605 0
2.0487196 7.3248954 -0.8815397 0
2.2388597 8.0652857 -0.80344689 0
2.0186291 7.3546133 -0.88641024 0
13.973347 51.110138 7.0308619 0
3.5551696 13.229617 -0.852072 0
1.9684507 7.4141159 -0.89615273 0
3.4701009 13.283818 -0.85202408 0
1.9233198 7.4586663 -0.90096915 0
1.8981994 7.4933643 -0.90079176 0
1.8681139 7.5230856 -0.90567183 0
3.2061098 13.246361 -0.84389532 0
1.9875872 8.3427343 0.56777453 0
1.9573185 8.4024382 0.56818992 0
1.8592246 8.1964283 -0.80934072 0
1.8820629 8.4988394 0.36863673 0
-2.8021603 14.657331 -0.99172473 0
-2.8823297 14.736902 -0.99647856 0
-1.4089645 7.1191363 -1.0238349 0
-7.8428903 38.697544 1.5078082 0
-2.0635273 10.071328 -1.0801655 0
-1.4736443 7.0986381 -1.0243891 0
-7.9371347 37.498241 5.0560718 0
-3.1766911 14.795303 -1.0126466 0
-1.5435205 7.1181569 -1.0296202 0
-9.3043165 42.093914 6.6758718 0
-9.4279718 42.137997 3.6355293 0
-8.8663549 39.157776 -0.33900675 0
-8.9509697 39.142384 -0.33967647 0
-2.9968462 12.967137 -1.1686412 0
-3.4864147 14.928662 -1.0282279 0
-2.3622332 10.014351 -1.0824217 0
-1.9634606 8.2308569 -1.0416827 0
-2.4120502 10.009033 -1.0827442 0
-9.4942188 38.760395 5.2436481 0
-9.5736198 38.70015 5.2376294 0
-9.7901402 39.151264 4.350594 0
-3.8366456 15.171979 -1.0579859 0
-2.5515068 9.9931784 -1.0886955 0
-3.3508623 12.99518 -1.1854043 0
-3.3757362 12.990029 -1.1856228 0
-10.707892 40.558594 10.543951 0
-10.536237 39.840179 3.4676132 0
-9.5275812 35.740067 6.6353812 0
-2.1824276 8.1743288 -1.0434771 0
-4.2128897 15.610386 -1.106079 0
-10.540598 38.783638 4.3277893 0
-2.2222276 8.1590624 -1.0438232 0
-4.3180923 15.704914 -1.115787 0
-4.6078529 16.634806 0.0061835051 0
-10.932022 39.189247 5.3342977 0
-10.342057 36.800793 8.6960316 0
-11.699176 41.255314 11.834743 0
-12.428203 43.743008 5.9230433 0
-2.3168392 8.1434259 -1.0445037 0
-3.7245831 12.983121 -1.1976658 0
-11.345215 39.232437 3.4323568 0
-10.486108 36.016098 6.7174406 0
-2.8949804 9.9160233 -1.0913563 0
-12.849709 43.664333 1.6648477 0
-10.645186 35.940647 6.7108507 0
-10.720843 35.921337 8.5257273 0
-11.431885 38.0368 11.971319 0
-10.77343 35.767288 5.79849 0
-2.4411612 8.0925846 -1.0456738 0
-3.9387255 12.951963 -1.2041683 0
-13.257016 43.27174 3.7688677 0
-2.1307559 6.9588265 -1.0344236 0
-12.921819 41.593784 10.925838 0
-13.461168 43.236015 3.7673774 0
-2.1555109 6.9285975 -1.0298408 0
-13.090553 41.463566 10.903686 0
-12.912837 40.787827 0.58278298 0
-2.1904018 6.9283977 -1.0350327 0
-4.1229529 12.915953 -1.2055209 0
-13.772992 42.845192 3.7420235 0
-2.2252483 6.9181609 -1.0353005 0
-10.765088 33.074287 9.63904 0
-14.043217 43.039028 3.7622509 0
-11.589228 35.306522 7.5450459 0
-5.5759959 16.939718 -1.2564948 0
-12.807671 38.650234 4.3636489 0
-11.778739 35.320843 7.5591407 0
-5.7164521 17.099194 -1.2757965 0
-13.969002 41.515945 1.5985433 0
-11.973467 35.380066 7.5835781 0
-5.861949 17.268652 -1.2950344 0
-13.29873 38.968636 6.3538508 0
-4.3816276 12.824553 -1.2078158 0
-14.298083 41.529682 1.6018772 0
-2.3696291 6.8871655 -1.0363842 0
-6.0827298 17.532831 -1.3238336 0
-14.48211 41.45903 1.6001899 0
-2.7844238 7.9703088 -1.0436885 0
-14.022375 39.659939 10.546749 0
-16.615442 46.867043 0.61820358 0
-2.4242587 6.8517737 -1.0370185 0
-4.5608416 12.783647 -1.2141864 0
-11.99251 33.213612 10.658498 0
-14.019396 38.730869 4.4026513 0
-14.299438 39.289978 10.481816 0
-13.503892 36.878815 11.823954 0
-17.964375 48.939796 4.2748518 0
-3.5566237 9.6820717 -1.0971739 0
-14.367398 38.84779 0.5567348 0
-14.272861 38.389175 7.2880931 0
-12.927058 34.568787 10.200819 0
-14.234032 37.962917 3.3843927 0
-3.6213078 9.6617012 -1.097723 0
-13.477294 35.568466 13.407044 0
-15.45243 40.711334 7.7279758 0
-12.613907 33.035141 8.898407 0
-14.128175 36.935917 2.3854659 0
-14.013295 36.441498 7.8970747 0
-12.359117 31.931187 10.33469 0
-14.829145 38.233723 4.3736367 0
-12.655197 32.462524 7.9179249 0
-15.129464 38.740074 0.5515523 0
-16.819847 42.831169 7.0499673 0
-4.9687948 12.636554 -1.2177384 0
-14.794637 37.419792 4.2962813 0
-12.768288 32.126858 8.7041969 0
-14.994534 37.642403 2.432256 0
-3.1226959 7.8432317 -1.0516821 0
-12.892989 32.009441 10.412503 0
-14.911799 36.97493 4.2565794 0
-3.1373391 7.7880363 -1.0422828 0
-7.8875823 19.396265 -1.5365498 0
-17.31592 42.395336 7.0132785 0
-13.363503 32.535255 7.9847312 0
-16.24008 39.44593 0.55204034 0
-2.7574646 6.7045007 -1.0351257 0
-8.0622911 19.435579 -1.547103 0
-16.057629 38.547455 5.4198384 0
-13.567106 32.389954 7.9723339 0
-15.45322 36.823116 1.4572953 0
-13.65692 32.404667 7.9819751 0
-16.597748 39.291744 -0.44130567 0
-17.388132 40.965027 7.8748379 0
-13.36738 31.326113 9.4186745 0
-16.504896 38.578529 1.5177355 0
-3.2964509 7.7070804 -1.0438176 0
-13.952806 32.321587 13.334686 0
-2.8518465 6.6438284 -1.0311905 0
-5.4268947 12.539392 -1.2310693 0
-16.113016 36.997677 3.3503721 0
-4.1136532 9.4439735 -1.1023163 0
-16.842949 38.407532 1.5143719 0
-20.151764 45.713165 8.8035316 0
-5.5164294 12.498969 -1.2318761 0
-14.260271 32.026886 13.275379 0
-2.9264202 6.6033497 -1.0319263 0
-16.897263 37.678566 9.3179655 0
-5.5959454 12.453591 -1.2327101 0
-8.6690416 19.17305 -1.5527296 0
-17.319777 38.086235 1.503927 0
-19.386383 42.4286 9.358202 0
-3.4753752 7.6059742 -1.0406743 0
-20.186497 43.660824 10.805249 0
-3.5101943 7.5907731 -1.0409882 0
-3.5301354 7.5906625 -1.0410947 0
-3.0606906 6.5375032 -1.0331897 0
-3.0756192 6.5324101 -1.0333141 0
-15.100334 31.561533 13.241803 0
-15.205264 31.601147 13.271612 0
-15.28998 31.590982 13.281092 0
-9.0601749 18.671356 -1.5342873 0
-16.133224 32.925594 9.188796 0
-14.21643 28.797194 -1.0292102 0
-6.0683436 12.221399 -1.2322158 0
-9.2986584 18.515415 -1.5318989 0
-9.3781843 18.470116 -1.5327168 0
-9.4375105 18.374868 -1.5288557 0
-9.5019417 18.304604 -1.5248272 0
-9.5713482 18.229355 -1.5258349 0
-17.43445 32.821583 -1.2441791 0
-3.3787534 6.3404922 -1.0315328 0
-3.3985388 6.3103251 -1.0268991 0
-3.4283822 6.2951512 -1.0271713 0
-3.4632459 6.2849584 -1.0274125 0
-4.087286 7.3426366 -1.0510473 0
-4.0969205 7.2775216 -1.0466565 0
-4.1317496 7.262341 -1.046955 0
-4.1665983 7.2521605 -1.0472207 0
-4.2014093 7.2319822 -1.0475494 0
-4.2262006 7.2068434 -1.0479041 0
-4.2559757 7.1766543 -1.043293 0
-4.2958431 7.1714902 -1.0485269 0
-4.3256378 7.1463356 -1.0488803 0
-4.3554325 7.121181 -1.0492325 0
-4.3902841 7.1110082 -1.0494933 0
-4.4200621 7.0808558 -1.0498738 0
-4.4498954 7.0657034 -1.0501634 0
-4.4796929 7.0405531 -1.0505109 0
-4.5144939 7.0153551 -1.0458589 0
-4.5342755 6.9852433 -1.0462295 0
-4.5690942 6.9650769 -1.0465453 0
-4.5888767 6.9349675 -1.046913 0
-4.6186795 6.9097915 -1.042256 0
-4.6434641 6.8796644 -1.0426229 0
-5.7288146 8.4010887 -1.0993024 0
-5.7635407 8.3609428 -1.0997707 0
-5.7932854 8.3258162 -1.1002055 0
-5.8129983 8.2806978 -1.0956923 0
-7.8074455 11.004497 -1.2360102 0
-11.811444 16.482172 -1.5214782 0
-11.870939 16.412027 -1.5223389 0
-11.945457 16.346806 -1.5181754 0
-4.1583862 5.6758218 -1.0107765 0
-4.2033119 5.6806788 -1.020914 0
-4.2181234 5.6505566 -1.0162359 0
-4.9612136 6.578095 -1.0364971 0
-6.1160498 8.0294676 -1.0940585 0
-8.139575 10.588357 -1.2259166 0
-8.1892738 10.548203 -1.2264374 0
-12.346492 15.740849 -1.504922 0
-12.436158 15.715649 -1.5105133 0
-12.465562 15.610573 -1.501518 0
-12.565242 15.585339 -1.507075 0
-12.594647 15.475286 -1.5030534 0
-12.664235 15.420128 -1.5037484 0
-4.4564457 5.4092646 -1.0091113 0
-6.4339318 7.7332511 -1.0926738 0
-8.5567303 10.182086 -1.2257502 0
-8.5914373 10.136964 -1.2212437 0
-12.922153 15.09457 -1.4972273 0
-4.5607738 5.3087449 -1.0102465 0
-6.5679278 7.5777388 -1.0893595 0
-13.061001 14.909319 -1.4991452 0
-4.6103926 5.2484894 -1.0108852 0
-5.4079914 6.0960269 -1.0269662 0
-13.204909 14.739038 -1.4959688 0
-13.26447 14.668932 -1.4967016 0
-13.31402 14.593834 -1.492452 0
-4.7097449 5.1479816 -1.0069809 0
-6.7513208 7.3070478 -1.0820431 0
-6.7760911 7.266964 -1.0824248 0
-9.0029573 9.5608253 -1.2120472 0
-13.491825 14.19359 -1.4810756 0
-13.511298 14.088592 -1.4769388 0
-38.664909 39.93372 0.45973086 0
-4.8337712 4.9823442 -1.0036136 0
-6.9249105 7.0664549 -1.0793962 0
-9.1763353 9.2753906 -1.2047399 0
-39.937832 39.951771 0.45595104 0
-5.7306809 5.714664 -1.0208441 0
-7.0241838 6.9411225 -1.0756129 0
-9.2702627 9.0701618 -1.1965164 0
-13.902833 13.47307 -1.4676846 0
-4.9777813 4.8116579 -1.0002776 0
-5.8199072 5.574286 -1.017133 0
-9.3592243 8.8699579 -1.1882327 0
-14.101486 13.247828 -1.4699265 0
-5.8744936 5.4990802 -1.017823 0
-14.160809 13.11278 -1.4660443 0
-14.215446 13.052721 -1.4666489 0
-14.250001 12.962699 -1.4623804 0
-5.1017842 4.62606 -0.99694169 0
-5.1266627 4.6059599 -0.99714732 0
-9.592371 8.5295 -1.1863085 0
-41.350117 36.424702 1.7062175 0
-7.3264756 6.4301848 -1.0651083 0
-41.829067 36.344265 1.709378 0
-7.3561749 6.3700848 -1.0606076 0
-44.361111 38.000996 -2.2956378 0
-5.2109003 4.4555445 -0.99341488 0
-9.7509346 8.2492151 -1.1786844 0
-47.111374 39.469482 4.7325053 0
-9.7905407 8.1691637 -1.1793323 0
-9.8102646 8.109127 -1.1747864 0
-47.478294 38.87545 4.7174873 0
-7.504921 6.119689 -1.0576837 0
-47.992088 38.755154 4.7403936 0
-6.1918559 4.9828734 -1.0072078 0
-9.9042234 7.8890119 -1.1714981 0
-14.643414 11.552976 -1.4181445 0
-14.668015 11.462997 -1.4137959 0
