# .PCD v0.7 - Point Cloud Data file format
VERSION 0.7
FIELDS x y z intensity
SIZE 4 4 4 4
TYPE F F F F
COUNT 1 1 1 1
WIDTH 1394
HEIGHT 1
VIEWPOINT 0 0 0 1 0 0 0
POINTS 1394
DATA ascii
-5.5492196 4.999958 -0.72481656 0
-20.296198 17.691961 -0.89858341 0
-6.7408299 5.9543233 -0.72710633 0
-4.8417473 4.3021092 -0.73757637 0
-4.3235083 3.8412139 -0.76415968 0
-20.638433 17.581627 -0.91108847 0
-8.6107111 7.3920879 -0.73335993 0
-4.9159861 4.2706676 -0.74320745 0
-49.926739 41.51012 7.9904108 0
-8.7247829 7.3551402 -0.73920703 0
-6.9081326 5.8312511 -0.73395956 0
-5.7359872 4.8513083 -0.73200047 0
-21.542345 17.607273 -0.94496238 0
-8.8584375 7.2978601 -0.74531519 0
-5.7949929 4.8052068 -0.73767519 0
-5.0188127 4.1685467 -0.74958825 0
-45.159569 35.863747 5.7639441 0
-22.201899 17.641855 -0.97262955 0
-9.0218306 7.2301216 -0.75664389 0
-5.0777421 4.1173425 -0.75030887 0
-12.764917 10.026758 -0.80976343 0
-7.1797509 5.6814313 -0.75150537 0
-5.1067209 4.0666943 -0.75088418 0
-45.132713 34.390728 1.6965263 0
-12.947847 9.9338369 -0.81637061 0
-9.2541571 7.1112237 -0.76871133 0
-6.0065699 4.6462088 -0.75002801 0
-4.5828409 3.5705278 -0.77276087 0
-9.3579073 7.0545001 -0.77465928 0
-5.2200489 3.9894686 -0.75707734 0
-45.752895 33.403183 1.6855791 0
-23.738482 17.328308 -1.0320638 0
-7.4259248 5.5020714 -0.76415491 0
-50.296024 35.981201 6.1323876 0
-6.1742229 4.5381265 -0.76171887 0
-47.818962 33.737926 4.4494982 0
-9.6091108 6.8753438 -0.78729308 0
-4.7252579 3.4476058 -0.78448081 0
-7.5935154 5.3891745 -0.77586257 0
-4.7597294 3.4219005 -0.78485847 0
-6.2970138 4.4308457 -0.76818359 0
-9.8165665 6.7569604 -0.79920185 0
-5.4360108 3.7952583 -0.77472401 0
-9.8855181 6.7058172 -0.79993153 0
-6.3654823 4.3545341 -0.76913583 0
-14.176093 9.4096508 -0.87615466 0
-5.4996881 3.7289822 -0.77557206 0
-10.033576 6.6134143 -0.80634761 0
-5.5492153 3.7080922 -0.7809701 0
-10.112514 6.5621567 -0.81211567 0
-4.9214168 3.2585826 -0.79698253 0
-6.5380254 4.2364473 -0.78089213 0
-14.702241 9.241581 -0.90480232 0
-6.5822897 4.2006764 -0.78638554 0
-10.284517 6.4144392 -0.82407951 0
-5.0301881 3.2015393 -0.80794942 0
-10.363571 6.3681545 -0.8247999 0
-5.7011485 3.5551779 -0.7929287 0
-8.1851168 4.9841385 -0.81183648 0
-15.217948 9.0437508 -0.92861009 0
-5.7651148 3.5039976 -0.79863608 0
-10.560686 6.2250581 -0.83681393 0
-5.1026807 3.0699167 -0.80937374 0
-10.629564 6.1689973 -0.84256375 0
-5.1472325 3.0491092 -0.81474233 0
-8.3667908 4.8161197 -0.82399571 0
-5.1615634 3.0137603 -0.81510031 0
-6.8717508 3.9205015 -0.80496144 0
-15.816516 8.7298803 -0.95865977 0
-6.9159508 3.879751 -0.81048465 0
-15.995541 8.6872044 -0.9697479 0
-6.9602566 3.843962 -0.81096649 0
-16.154324 8.6298695 -0.98086655 0
-6.9944615 3.80338 -0.81644356 0
-5.9954495 3.2646849 -0.81660938 0
-11.093162 5.8468542 -0.87211728 0
-5.2834659 2.8512521 -0.82197285 0
-8.656106 4.5213785 -0.84261155 0
-5.3279471 2.8254588 -0.82737482 0
-11.255984 5.7343459 -0.87869477 0
-5.3372102 2.7852011 -0.82774484 0
-11.339971 5.6830773 -0.88445079 0
-6.1176682 3.1173859 -0.82333136 0
-28.706018 13.907189 0.28443471 0
-11.453469 5.6064014 -0.89553726 0
-6.1668663 3.0765197 -0.82887483 0
-11.527402 5.550272 -0.89629197 0
-5.4352565 2.683346 -0.83899999 0
-8.9513245 4.2716608 -0.86085427 0
-17.327293 8.022995 -1.0455116 0
-6.2298336 2.9652882 -0.83004582 0
-9.0397062 4.1852717 -0.8669126 0
-17.509354 7.86549 -1.0524944 0
-6.2686114 2.8995731 -0.83574116 0
-9.1280985 4.0988917 -0.87296641 0
-17.651194 7.6936479 -1.059417 0
-6.3174157 2.8336613 -0.83647645 0
-9.2215557 4.0174789 -0.88399696 0
-17.853262 7.5358968 -1.0714669 0
-6.3612061 2.7678735 -0.84218717 0
-12.08318 5.0571694 -0.93246925 0
-5.6455517 2.429333 -0.85694695 0
-12.182098 5.0007572 -0.94331157 0
-7.5117836 3.119442 -0.84911478 0
-5.6544952 2.3690634 -0.85746837 0
-12.310587 4.9188719 -0.94946969 0
-6.4336891 2.6264718 -0.84361577 0
-9.4817266 3.7534943 -0.90213561 0
-18.454561 7.0628357 -1.1075404 0
-6.4724202 2.5557764 -0.84933603 0
-9.5650816 3.662236 -0.90818489 0
-5.7472205 2.2422886 -0.86386311 0
-9.6290722 3.6062794 -0.9138788 0
-18.78479 6.798449 -1.1258802 0
-6.5455265 2.4494722 -0.8554734 0
-9.7174406 3.5149555 -0.91994143 0
-18.981731 6.625845 -1.1329751 0
-6.5792966 2.3788259 -0.85616505 0
-12.932323 4.4650693 -0.99545658 0
-5.8243818 2.0807188 -0.8704561 0
-7.8243032 2.6993201 -0.87367332 0
-13.075239 4.348094 -1.0069147 0
-5.858233 2.0150778 -0.87610877 0
-7.8879652 2.6233091 -0.87951517 0
-13.188034 4.2215629 -1.0133197 0
-5.8921118 1.9494014 -0.87675881 0
-19.772448 6.1053705 -1.1850116 0
-6.7153463 2.1514208 -0.86848259 0
-10.015045 3.0906222 -0.94437718 0
-21.652855 6.3954411 0.25485852 0
-21.527132 6.3106356 -0.79032075 0
-13.423486 3.9584184 -1.0312296 0
-8.0292263 2.4060614 -0.89174318 0
-54.798721 15.303477 -2.4581802 0
-10.122208 2.9240787 -0.9510591 0
-5.9840736 1.7726481 -0.88849759 0
-20.659565 5.6584697 -1.2417954 0
-8.1022491 2.2899096 -0.89791369 0
-6.0031495 1.7172399 -0.88900006 0
-13.633261 3.6507583 -1.0493457 0
-6.0275545 1.6817801 -0.88936853 0
-8.180522 2.1887331 -0.90898669 0
-8.1949368 2.1534965 -0.90930831 0
-8.2244081 2.1230681 -0.91465187 0
-10.376565 2.5905051 -0.97455001 0
-10.43595 2.5546608 -0.98004687 0
-63.076069 14.398773 -2.8616045 0
-6.1046829 1.5103168 -0.90097928 0
-6.9822416 1.6718371 -0.89819086 0
-10.523355 2.3985009 -0.99154031 0
-6.1386108 1.4446647 -0.90160847 0
-8.3853951 1.8805968 -0.92708826 0
-10.601532 2.2874236 -0.9976598 0
-10.635799 2.2419338 -0.99812603 0
-10.660048 2.1966357 -1.0035508 0
-10.699374 2.1561105 -1.0089971 0
-10.728646 2.1107006 -1.0094404 0
-14.267493 2.6928909 -1.0937979 0
-6.2102652 1.2382207 -0.90843475 0
-8.4959097 1.6039249 -0.93955219 0
-10.836111 1.954275 -1.0209872 0
-14.384017 2.4765632 -1.1057973 0
-63.205227 10.097257 1.607567 0
-8.5638142 1.4729129 -0.94576907 0
-56.487427 8.6453876 4.1329689 0
-14.491138 2.2953036 -1.1124967 0
-62.294094 9.0792036 1.5789129 0
-6.3070126 1.036499 -0.92529941 0
-10.981242 1.6474124 -1.0337467 0
-56.455765 7.589685 4.1107426 0
-18.049631 2.4873619 0.24039017 0
-8.675211 1.2463104 -0.96283555 0
-58.552326 7.3291602 4.2460093 0
-7.261734 1.0170631 -0.92909801 0
-60.858967 7.1974401 0.11123388 0
-7.2910128 0.97160417 -0.93453932 0
-7.2804751 0.93671912 -0.93475175 0
-8.7722988 1.0598655 -0.97454488 0
-14.875749 1.6308079 -1.1486558 0
-6.4077735 0.76454371 -0.93767476 0
-6.4123693 0.73945719 -0.94287288 0
-7.3582048 0.79046261 -0.94610143 0
-8.8445988 0.88377142 -0.98107326 0
-8.8639717 0.84351033 -0.98643243 0
-11.220937 0.97937816 -1.0593923 0
-11.245161 0.92908883 -1.0648352 0
-15.21327 1.1417463 -1.1783303 0
-7.4154544 0.60944229 -0.95260751 0
-7.4149294 0.57441109 -0.95285392 0
-7.4294772 0.54416001 -0.95312107 0
-7.4339547 0.50905615 -0.95338607 0
-7.4434128 0.47391653 -0.95866954 0
-7.442966 0.44388512 -0.95887673 0
-7.4624453 0.40856361 -0.95919847 0
-7.4669275 0.37346053 -0.95946121 0
-7.4814634 0.34324935 -0.96472502 0
-7.4859481 0.30814672 -0.96498668 0
-7.4854345 0.2731162 -0.96522832 0
-7.4899216 0.2380138 -0.96548903 0
-7.5044088 0.20276734 -0.96578789 0
-7.5239506 0.1724859 -0.97106826 0
-7.5234418 0.13745645 -0.97130799 0
-7.5479131 0.10210475 -0.97664332 0
-7.5524068 0.067003474 -0.97690105 0
-7.5718813 0.03172477 -0.98221588 0
-7.5813766 -0.0034471727 -0.98249185 0
-7.5808744 -0.038475815 -0.98272896 0
-6.5807161 -0.044265095 -0.97402632 0
-6.5802875 -0.074312553 -0.97423029 0
-6.5448823 -0.10389899 -0.96930027 0
-6.5944133 -0.13458458 -0.97969401 0
-6.6089864 -0.16484493 -0.979954 0
-6.6235418 -0.19506785 -0.98521316 0
-11.768682 -0.53707874 -1.1367232 0
-11.787981 -0.58731329 -1.1371213 0
-11.807192 -0.64250934 -1.1425545 0
-11.811426 -0.69753033 -1.1429305 0
-11.820662 -0.75262159 -1.1433245 0
-11.824899 -0.80764216 -1.1436989 0
-11.83912 -0.8627665 -1.14911 0
-9.3015947 -0.69268101 -1.0585172 0
-40.895115 -3.6912959 -1.8010769 0
-6.6392694 -0.50078082 -0.99232304 0
-14.407086 -1.3111887 -0.1065726 0
-7.7270641 -0.66092873 -1.0174342 0
-7.7415657 -0.69612825 -1.0227178 0
-7.7610869 -0.73143327 -1.0230196 0
-11.908338 -1.2833613 -1.1620789 0
-9.3171921 -1.0128652 -1.0706506 0
-9.3115845 -1.0577925 -1.0709207 0
-6.6758056 -0.75159967 -1.0091118 0
-9.3101072 -1.1677847 -1.0716221 0
-6.6698003 -0.82664609 -1.0095773 0
-9.3485994 -1.2782568 -1.0824673 0
-6.6887126 -0.90700108 -1.0151684 0
-9.3571415 -1.3883852 -1.0831978 0
-6.6926336 -0.98714828 -1.0207011 0
-9.3506765 -1.4982716 -1.0888683 0
-6.7115607 -1.0675011 -1.0262858 0
-9.3642197 -1.6084318 -1.0946089 0
-6.7304268 -1.1528512 -1.031903 0
-9.3777046 -1.7235905 -1.100381 0
-6.7343707 -1.2329971 -1.0374265 0
-9.391201 -1.8387481 -1.1061484 0
-6.7482524 -1.318277 -1.0430191 0
-9.3947945 -1.9488056 -1.1068403 0
-6.7173672 -1.3879858 -1.0433393 0
-9.3933134 -2.0637593 -1.1125447 0
-7.8377175 -1.7380255 -1.0747055 0
-12.392123 -2.8831482 -1.2638285 0
-6.735631 -1.5234014 -1.0492549 0
-12.357255 -2.9597077 -0.9641453 0
-7.826335 -1.8479664 -1.0753404 0
-12.290231 -3.0366709 -1.2593695 0
-12.448294 -3.1320171 -0.075496346 0
-12.556371 -3.1963029 -0.38130561 0
-12.51727 -3.2128801 -0.076243877 0
-12.640808 -3.2779768 1.1379353 0
-7.8096991 -1.9778196 -1.0810748 0
-12.264182 -3.2082725 -0.96028912 0
-12.304773 -3.2458444 -0.66565382 0
-12.528343 -3.337712 2.0480349 0
-6.7229743 -1.7334938 -1.0605075 0
-6.7676172 -1.7590438 -1.0708287 0
-12.301112 -3.3664832 -1.2713789 0
-12.347315 -3.4411836 -0.67698002 0
-6.7267218 -1.8336624 -1.066135 0
-6.6964436 -1.8583468 -1.0611727 0
-6.6860805 -1.8882611 -1.0613161 0
-6.6856341 -1.9232725 -1.0665293 0
-6.6802731 -1.9532533 -1.0666897 0
-6.6848459 -1.9883653 -1.06692 0
-6.659555 -2.0130844 -1.0669739 0
-6.614367 -2.0326116 -1.0569227 0
-6.7085381 -2.0937626 -1.0776423 0
-6.6484189 -2.1080947 -1.0675031 0
-6.6280656 -2.1378808 -1.0676084 0
-6.6177125 -2.167798 -1.0677487 0
-6.6222773 -2.2028768 -1.0729754 0
-6.6020098 -2.2276998 -1.0680456 0
-6.5965943 -2.2626824 -1.0682367 0
-6.5862455 -2.2926011 -1.0683756 0
-6.5758982 -2.32252 -1.0685143 0
-6.5804687 -2.3575985 -1.0737392 0
-6.5601897 -2.3823903 -1.0738076 0
-6.5498452 -2.4123104 -1.0739452 0
-6.52952 -2.442136 -1.0690478 0
-6.5241604 -2.4720871 -1.0742021 0
-9.16504 -3.570698 -1.1556389 0
-30.050615 -12.158075 -2.9250324 0
-6.5032458 -2.5519555 -1.074594 0
-6.4979076 -2.5819418 -1.0747472 0
-6.4825706 -2.6118004 -1.0748653 0
-6.4573002 -2.6365323 -1.0749147 0
-6.4469652 -2.6664557 -1.0750498 0
-6.4515495 -2.7015364 -1.0802697 0
-6.4412174 -2.731461 -1.0804036 0
-6.415967 -2.7562296 -1.0754522 0
-6.4155555 -2.7912469 -1.0806538 0
-9.049737 -4.0392475 -1.1678782 0
-11.017542 -5.0035849 0.21912293 0
-13.824677 -6.3471198 -1.5843431 0
-9.0138741 -4.1188135 -1.1681864 0
-7.3983312 -3.3787663 -1.1027752 0
-10.911503 -5.1021571 0.21898653 0
-13.906998 -6.5778399 -1.6059434 0
-6.3388228 -2.9505908 -1.0812805 0
-13.975175 -6.7334862 -1.6220782 0
-8.9367676 -4.3128905 -1.1689868 0
-8.9163456 -4.3526459 -1.16913 0
-7.3061371 -3.5828445 -1.1035806 0
-14.254278 -7.236269 -1.6809429 0
-7.2751617 -3.6725259 -1.1089684 0
-14.624465 -7.635282 -1.74458 0
-7.2392106 -3.7621815 -1.109337 0
-14.790907 -7.9418988 -1.7819097 0
-7.2181892 -3.8569925 -1.1147863 0
-14.887845 -8.2127094 -1.8087606 0
-7.1773176 -3.9415929 -1.1151003 0
-14.949875 -8.4780817 -1.8354499 0
-7.1413927 -4.0312586 -1.1154613 0
-14.897863 -8.6721783 -1.8412855 0
-7.1005201 -4.1158338 -1.1207711 0
-14.935157 -8.9223089 -1.8577754 0
-7.074532 -4.2105937 -1.126194 0
-14.893044 -9.1265001 -1.868696 0
-7.0386314 -4.3002691 -1.1265481 0
-14.860768 -9.3458157 -1.8797421 0
-6.9829211 -4.3747067 -1.1267368 0
-14.823571 -9.5600758 -1.8907325 0
-6.9470205 -4.4643574 -1.1320865 0
-14.751657 -9.7539511 -1.896471 0
-6.9011989 -4.5489311 -1.1323667 0
-14.749092 -9.9986486 -1.9127383 0
-6.8554354 -4.6285257 -1.1326059 0
-14.696987 -10.207788 -1.9236052 0
-6.7898006 -4.6978874 -1.1327133 0
-14.669642 -10.437197 -1.9396758 0
-6.7142472 -4.7621679 -1.1277555 0
-14.622396 -10.661403 -1.95064 0
-6.7081137 -4.8721838 -1.1383095 0
-14.580167 -10.885674 -1.9616141 0
-6.6573191 -4.9567351 -1.1385562 0
-14.577511 -11.145353 -1.9829309 0
-6.6015911 -5.0362329 -1.1387522 0
-14.46089 -11.323817 -1.9833612 0
-6.5557947 -5.12082 -1.1440103 0
-14.418644 -11.55307 -1.9993434 0
-6.5100217 -5.2054434 -1.1442661 0
-14.30698 -11.736578 -2.0048101 0
-6.4641819 -5.2950387 -1.1495506 0
-14.195347 -11.920129 -2.0052741 0
-6.4084816 -5.3745542 -1.1497387 0
-6.3932104 -5.4044108 -1.1548228 0
-14.047929 -12.188155 -2.0160103 0
-6.327579 -5.4788194 -1.1549449 0
-13.891812 -12.331246 -2.0110712 0
-6.2867637 -5.5684862 -1.1602378 0
-13.780158 -12.519799 -2.0165505 0
-6.2310872 -5.6480184 -1.1604186 0
-13.653695 -12.693192 -2.0218832 0
-6.1802874 -5.7375793 -1.1656754 0
-13.502544 -12.841345 -2.0219815 0
-6.1196814 -5.8120642 -1.1658063 0
-6.1043849 -5.8469615 -1.1659163 0
-13.380527 -13.074757 -2.032618 0
-6.0538917 -5.9065008 -1.1710129 0
-13.199708 -13.197631 -2.027463 0
-5.9882998 -5.9809403 -1.1711248 0
-13.073376 -13.366102 -2.0277498 0
-5.9227161 -6.0553861 -1.1712345 0
-12.922225 -13.519306 -2.0278659 0
-5.8571935 -6.1248369 -1.1713127 0
-12.721721 -13.617002 -2.0224929 0
-5.7965508 -6.204319 -1.1764649 0
-12.541002 -13.734934 -2.0173004 0
-5.7260408 -6.2737255 -1.1765251 0
-12.325751 -13.812529 -2.0067616 0
-5.6506472 -6.3330841 -1.1765088 0
-12.110511 -13.890141 -1.9962227 0
-7.573204 -8.7163754 -0.056396216 0
-4.799932 -5.5190201 -1.1539022 0
-6.7045937 -7.8247194 -1.2383587 0
-7.4578009 -8.7852011 -0.056251109 0
-5.4896579 -6.4767494 -1.1765624 0
-7.4526057 -8.8968182 0.2132327 0
-7.4069996 -8.8847227 -0.056522548 0
-7.3342304 -8.8474674 -1.1410657 0
-5.40412 -6.5560594 -1.1766016 0
-11.340644 -14.071774 -1.9538019 0
-5.3435712 -6.6305771 -1.1817154 0
-11.100931 -14.10423 -1.9379306 0
-5.2583313 -6.679893 -1.1766047 0
-10.876163 -14.141867 -1.9221389 0
-5.1779175 -6.7442374 -1.176598 0
-10.685884 -14.224835 -1.9167185 0
-5.0976181 -6.7985907 -1.1765307 0
-10.456219 -14.252425 -1.9058571 0
-5.0271463 -6.8680263 -1.1815811 0
-10.266017 -14.330457 -1.8954113 0
-4.9566956 -6.9374967 -1.1816304 0
-10.006854 -14.312798 -1.8792064 0
-4.8763576 -6.9968696 -1.1815903 0
-9.7871532 -14.345579 -1.863416 0
-4.8059039 -7.0663242 -1.1866373 0
-9.5822153 -14.398478 -1.8577886 0
-4.7255774 -7.12571 -1.1865957 0
-9.352788 -14.406193 -1.8418298 0
-4.6503057 -7.1801548 -1.1865399 0
-9.0939484 -14.358645 -1.8204746 0
-4.5699353 -7.2445531 -1.1865265 0
-8.8596239 -14.356348 -1.804455 0
-4.4896097 -7.3039308 -1.191483 0
-8.6108284 -14.303946 -1.7831135 0
-4.4093537 -7.3583441 -1.191411 0
-15.92728 -27.253565 -2.1272533 0
-8.286932 -14.285856 -1.7566304 0
-4.3038559 -7.447577 -1.1964027 0
-8.0725336 -14.2888 -1.7457156 0
-4.2186117 -7.5019546 -1.1963154 0
-7.8533549 -14.271743 -1.729677 0
-4.1383224 -7.5613918 -1.1962694 0
-7.6439037 -14.279774 -1.7188139 0
-4.0580244 -7.6208072 -1.2012225 0
-3.4736855 -6.5850344 -1.178715 0
-7.3547716 -14.282094 -1.7025706 0
-7.250453 -14.241145 -1.6919248 0
-4.730969 -9.3578396 -1.2625145 0
-3.3433883 -6.6642385 -1.1785606 0
-4.6207695 -9.4169674 -1.262343 0
-3.2633228 -6.6987271 -1.1784009 0
-4.515676 -9.4661551 -1.2621291 0
-3.1979978 -6.7583447 -1.1834205 0
-4.4104719 -9.5253229 -1.2669713 0
-3.1130388 -6.7827973 -1.1831921 0
-3.0878568 -6.8126688 -1.1832358 0
-11.469655 -26.029587 -2.5518134 0
-11.300697 -25.972984 -2.5358078 0
-11.307805 -26.302887 -2.5674052 0
-6.0298924 -14.175271 -1.6213508 0
-5.9602008 -14.169686 -1.6160096 0
-5.8804631 -14.169006 -1.6106682 0
-5.800674 -14.173327 -1.6053561 0
-5.7260799 -14.157701 -1.5999491 0
-5.6414371 -14.146979 -1.5945437 0
-5.561842 -14.13131 -1.589125 0
-5.4871364 -14.125664 -1.5887749 0
-5.4123974 -14.125048 -1.5834514 0
-5.3278503 -14.104338 -1.5779949 0
-9.3395281 -25.129602 -2.3832014 0
-2.5882828 -6.9497075 -1.1718539 0
-2.5728438 -7.0046353 -1.1820576 0
-2.9370706 -8.1332531 -1.1990541 0
-2.906956 -8.1580601 -1.2040457 0
-2.862159 -8.1527824 -1.1988355 0
-2.8271065 -8.1725712 -1.1987871 0
-2.7919941 -8.1973343 -1.2037653 0
-2.7521479 -8.1971064 -1.1985967 0
-2.7121933 -8.206851 -1.1984818 0
-2.6722865 -8.2115984 -1.1983404 0
-2.6371434 -8.241395 -1.1983447 0
-2.6022372 -8.246192 -1.1982167 0
-3.1053529 -10.030843 -1.2639494 0
-3.0652885 -10.055585 -1.2638984 0
-3.0154614 -10.055236 -1.2636892 0
-2.4424732 -8.2802038 -1.1977345 0
-3.9599533 -13.828436 -1.4908583 0
-2.3525009 -8.3146925 -1.197529 0
-3.7905636 -13.827147 -1.4851377 0
-3.7210019 -13.806634 -1.4797405 0
-2.68594 -10.133052 -1.2577056 0
-2.1776772 -8.3636713 -1.1970526 0
-3.5070648 -13.770041 -1.4686487 0
-1.823759 -7.1956701 -1.1699456 0
-8.1998892 -33.208744 -0.70178723 0
-3.3678837 -13.734039 -1.4578668 0
-1.7587123 -7.2253313 -1.1748216 0
-7.847271 -33.070576 -0.69456339 0
-3.2235951 -13.707973 -1.4521279 0
-1.9630423 -8.4074574 -1.1963611 0
-7.850224 -34.404026 0.90915644 0
-7.3720112 -32.706345 -0.6807158 0
-3.0496657 -13.656736 -1.4411269 0
-1.6042876 -7.2246218 -1.164173 0
-7.3337917 -33.940125 0.093622714 0
-2.9104767 -13.620764 -1.4303572 0
-1.5391995 -7.2592978 -1.1690764 0
-6.7805347 -32.887081 -1.4689829 0
-1.4894425 -7.2540951 -1.1638403 0
-6.782239 -33.999367 0.90079403 0
-6.7672634 -34.355145 0.094147652 0
-2.6369889 -13.558868 -1.4138914 0
-1.6240511 -8.4306431 -1.1850586 0
-6.1119533 -32.64032 -0.66985345 0
-1.3450803 -7.2384129 -1.1581784 0
-1.3149192 -7.2682676 -1.1632009 0
-1.7984425 -10.207546 -1.2392999 0
-3.8272948 -22.417894 -1.9662714 0
-1.2302842 -7.2629156 -1.1578261 0
-1.3896384 -8.4594269 -1.1842275 0
-1.3497936 -8.4592476 -1.1790627 0
-1.3098918 -8.4640427 -1.1789235 0
-1.2701241 -8.4538403 -1.1787091 0
-1.2350336 -8.4786596 -1.1836826 0
-1.195189 -8.4784842 -1.1785191 0
-1.1554209 -8.4682865 -1.178306 0
-1.115431 -8.4830866 -1.1782182 0
-1.2904282 -10.189657 -1.2221105 0
-2.873765 -23.55081 -0.94754291 0
-1.0157907 -8.4826012 -1.1778121 0
-0.97593385 -8.4824085 -1.1776506 0
-0.94103312 -8.4872608 -1.1775264 0
-0.89618862 -8.487052 -1.1723534 0
-0.86128801 -8.4919062 -1.1722296 0
-0.82147497 -8.4867191 -1.1720449 0
-2.521301 -27.309093 0.14608239 0
-1.8311903 -20.483505 -1.7485251 0
-0.88695264 -10.182481 -1.2154285 0
-2.2828577 -27.410402 0.78662527 0
-2.2510579 -27.863882 -0.5054307 0
-1.0308131 -13.213581 -1.3404971 0
-0.64221889 -8.4759188 -1.1662793 0
-2.0555458 -28.582178 1.4820163 0
-1.9130733 -27.542595 0.79255009 0
-1.8448893 -27.58079 -0.49737862 0
-1.2737314 -19.844824 -1.6781465 0
-1.224299 -19.7995 -1.6727271 0
-0.78220803 -13.157128 -1.3292141 0
-0.58312774 -10.17594 -1.20917 0
-0.46794939 -8.4651632 -1.1655335 0
-0.38343805 -7.2546153 -1.1344171 0
-0.42800668 -8.4749889 -1.1654255 0
-0.62816215 -13.111241 -1.3233711 0
-0.59835863 -13.101069 -1.3232006 0
-0.44382578 -10.15527 -1.2035121 0
-0.29865807 -7.2643132 -1.1341376 0
-1.045553 -27.804251 1.4499478 0
-0.96180338 -27.500423 0.79171562 0
-0.91005999 -27.963869 -0.50030494 0
-0.29942685 -10.144548 -1.2028947 0
-0.73107743 -27.876947 1.4559038 0
-0.66242945 -28.38204 -0.51127827 0
-0.27054507 -12.989282 -1.3063396 0
-0.15436831 -8.4339008 -1.1541605 0
-0.13524862 -10.118784 -1.1971267 0
-0.17271824 -18.687977 -1.5531121 0
-0.049439203 -7.278471 -1.1382478 0
-0.019825215 -8.4383764 -1.1536605 0
0.019854069 -8.4182425 -1.1484137 0
0.059670545 -8.413085 -1.1482385 0
0.099445581 -8.4029284 -1.1480402 0
0.13922134 -8.3927736 -1.1478425 0
0.17416158 -8.4026632 -1.1477503 0
0.21397869 -8.3975105 -1.1475768 0
0.30278397 -10.076831 -1.1902237 0
0.3474791 -10.061665 -1.1849787 0
0.49442694 -12.730349 -1.272094 0
2.7347441 -63.566471 -2.974997 0
0.388125 -8.3719082 -1.1418011 0
0.99623352 -20.026686 -0.26978371 0
0.6683588 -12.679502 -1.2661818 0
0.39817986 -7.1922307 -1.1211652 0
3.7226427 -63.159294 -2.9540606 0
0.52250993 -8.3564472 -1.1412275 0
0.83712542 -12.608733 -1.2551972 0
4.4173641 -62.839348 -2.9347486 0
0.6171574 -8.3561401 -1.1408731 0
0.97601378 -12.538107 -1.2493317 0
5.2113786 -63.653408 -2.9804664 0
0.71168524 -8.3408403 -1.1404524 0
0.88924187 -9.9145441 -1.1672375 0
1.5691099 -16.728682 -1.3619322 0
1.6382955 -16.663351 -1.3563566 0
1.7125202 -16.602985 -1.3507931 0
2.3028765 -21.647999 0.69763637 0
1.0879204 -9.8438377 -1.1611711 0
2.478878 -21.841921 0.70238304 0
1.4422637 -12.29612 -1.2264423 0
0.8557533 -7.101182 -1.1090908 0
2.5383747 -20.733925 1.1728673 0
2.827162 -22.420235 -1.3940948 0
1.5761685 -12.225605 -1.2156152 0
1.0896784 -8.2647457 -1.1337295 0
0.95527673 -7.0859652 -1.1086725 0
2.8209832 -20.69449 1.6641264 0
2.876157 -20.739178 1.6691208 0
2.9516969 -20.970974 2.1783242 0
2.9910288 -20.905739 2.1737792 0
3.0305078 -20.860527 2.174144 0
1.0496751 -7.0558186 -1.103202 0
1.0645769 -7.0507975 -1.1031258 0
1.2587306 -8.2243137 -1.1279444 0
1.5001428 -9.6925163 -1.143971 0
1.8936607 -12.064381 -1.2037001 0
9.6061001 -60.784134 -2.8397765 0
3.3429511 -20.892109 0.69511414 0
3.2329233 -20.01429 2.1038859 0
1.3480628 -8.1841316 -1.1224427 0
1.6095008 -9.6621675 -1.1434417 0
2.7044773 -16.0783 -1.3096254 0
10.129701 -59.656139 -2.7824781 0
3.3556311 -19.529417 1.1315778 0
3.6863666 -21.241819 2.2147672 0
1.4374002 -8.1439543 -1.1169454 0
2.1216726 -11.928613 -1.187242 0
3.5861089 -20.043888 0.20498802 0
3.6332638 -20.094959 1.6399511 0
3.749198 -20.518629 2.6484098 0
1.5119717 -8.1237793 -1.116596 0
2.9718192 -15.877192 -1.2927164 0
3.7441368 -19.873119 0.2063641 0
3.8686147 -20.365799 2.1445501 0
1.5666139 -8.1036587 -1.1163164 0
3.0708323 -15.801792 -1.2870096 0
3.8835275 -19.857388 0.20693922 0
4.0461602 -20.49556 1.1845597 0
4.2448602 -21.29376 2.231559 0
1.412617 -6.9652762 -1.0965433 0
1.9523022 -9.5462074 -1.1317072 0
1.9772218 -9.5461206 -1.1316242 0
2.4487355 -11.717552 -1.1701092 0
2.0169477 -9.5310259 -1.1314144 0
2.0418279 -9.5259428 -1.1313095 0
2.5231619 -11.682335 -1.1646835 0
3.3925223 -15.545572 -1.2646724 0
2.5726631 -11.642176 -1.1643291 0
2.1263571 -9.5057211 -1.1309254 0
1.5665703 -6.9051251 -1.090757 0
4.5858088 -20.067863 1.1734817 0
3.5807097 -15.40987 -1.2583766 0
2.230572 -9.4554825 -1.1253432 0
1.6356882 -6.8301706 -1.0751905 0
4.8559465 -20.196442 1.1788346 0
3.7339892 -15.269354 -1.2471936 0
1.9687482 -7.9330235 -1.0991772 0
1.7256457 -6.859962 -1.0850366 0
5.0064917 -19.837891 1.6460371 0
4.7111588 -18.373363 -1.1132493 0
2.4341347 -9.3700495 -1.119266 0
4.8406687 -18.36776 -1.1177679 0
2.4986417 -9.3348942 -1.1188923 0
4.9238253 -18.182566 -1.1066045 0
2.157311 -7.8377914 -1.0931175 0
3.1630332 -11.335521 -1.1408865 0
4.9991455 -17.657789 -1.0688906 0
2.2417202 -7.8027196 -1.0876719 0
3.2871137 -11.275201 -1.1351848 0
5.2491975 -17.761564 -1.0785016 0
2.3260231 -7.752655 -1.0821669 0
5.2761202 -17.40686 -1.051762 0
2.8213291 -9.1893215 -1.1071303 0
5.0501051 -16.304188 0.22760609 0
5.076046 -16.230808 -0.56698561 0
4.569356 -14.461967 -1.1855549 0
2.4599218 -7.6725621 -1.0763696 0
3.5996962 -11.109459 -1.1283691 0
5.6942887 -17.350136 -1.0550691 0
2.5443523 -7.637496 -1.0759375 0
3.7187939 -11.049212 -1.1226972 0
5.8063555 -17.045063 -1.0382783 0
2.6287873 -7.6024351 -1.0755094 0
3.8327184 -10.964014 -1.1169385 0
2.3364489 -6.5998273 -1.07189 0
4.9736767 -13.941221 -1.1518134 0
2.728045 -7.5524077 -1.0699714 0
6.0470214 -16.619675 -1.0105276 0
3.3080404 -8.9835644 -1.0996188 0
19.223291 -51.872345 -2.4734159 0
4.0607767 -10.81862 -1.110543 0
2.4905522 -6.5498128 -1.071197 0
5.2255139 -13.660819 -1.1297147 0
2.8969305 -7.4823241 -1.0691348 0
4.1946001 -10.728429 -1.1047119 0
6.2191343 -15.740301 -0.95596075 0
2.9915953 -7.4772038 -1.0738226 0
4.3086581 -10.658268 -1.0990403 0
6.3012261 -15.420496 -0.93425715 0
3.0556448 -7.3873596 -1.0632323 0
4.4227328 -10.588093 -1.0983753 0
6.3631392 -15.070836 -0.91248989 0
3.1400979 -7.3523436 -1.062827 0
4.5368466 -10.522931 -1.0977355 0
6.501545 -14.930603 -0.906425 0
3.2144094 -7.29742 -1.0573659 0
4.6306415 -10.412953 -1.0869634 0
6.6399317 -14.785378 -0.90035152 0
3.2937689 -7.2474494 -1.0569195 0
4.7294874 -10.307931 -1.0812079 0
6.7986317 -14.685031 -0.89442468 0
3.3680208 -7.1825414 -1.0514276 0
4.8234115 -10.212948 -1.0755085 0
6.92694 -14.524897 -0.88833082 0
3.432246 -7.1127038 -1.0459403 0
4.9223437 -10.117939 -1.0698063 0
7.0401502 -14.349896 -0.87721682 0
3.4964333 -7.0378938 -1.0354383 0
5.0264149 -10.042907 -1.064178 0
7.1836944 -14.219663 -0.87623143 0
3.5657039 -6.973033 -1.0299706 0
5.1304288 -9.95788 -1.0585182 0
7.3071084 -14.069593 -0.87021601 0
3.6299798 -6.9082108 -1.0245168 0
5.2294569 -9.872879 -1.0578732 0
3.239192 -6.0510621 -1.0369115 0
6.4784837 -12.055251 -1.0288152 0
3.7141805 -6.8383646 -1.0239954 0
7.5494771 -13.829368 -0.85848916 0
4.4065328 -7.9892225 -1.0270461 0
24.150984 -43.687714 -2.1660843 0
5.4224882 -9.6979647 -1.0465937 0
3.322525 -5.8767381 -1.0159639 0
6.6907859 -11.79532 -1.0171129 0
3.8427606 -6.7087512 -1.0131119 0
7.7863517 -13.524364 -0.84652174 0
4.5599008 -7.8394904 -1.0210085 0
7.8453031 -13.414453 -0.84089231 0
4.5993781 -7.7896304 -1.0156946 0
6.8683252 -11.550499 -1.0055939 0
3.471204 -5.7621837 -1.0101185 0
4.6786022 -7.7197714 -1.0102009 0
7.9823585 -13.094844 -0.82416987 0
4.015758 -6.5193744 -0.99688876 0
5.7530894 -9.2636051 -1.0188965 0
8.0149956 -12.81045 -0.80789113 0
4.0851135 -6.4595375 -0.99647629 0
5.8320374 -9.158802 -1.0132596 0
9.5219622 -14.862643 -0.57757151 0
4.886672 -7.5451226 -1.0039635 0
8.1927691 -12.590575 -0.8015095 0
4.1890569 -6.3598757 -0.99082303 0
7.2577019 -10.976185 -0.97718954 0
4.9757724 -7.4603333 -1.0034007 0
3.7237546 -5.5382028 -0.99860775 0
26.781521 -39.8918 -0.92756426 0
8.426012 -12.440366 -0.80030632 0
7.3509684 -10.786528 -0.96618354 0
6.0740404 -8.859375 -1.0014358 0
6.0888052 -8.8344393 -0.99630082 0
5.084466 -7.3307285 -0.9926194 0
3.8229234 -5.4635577 -0.99308813 0
8.5588722 -12.210673 -0.78904164 0
5.1438894 -7.2758803 -0.99226093 0
8.983963 -12.663506 0.61517352 0
27.168861 -38.16935 -1.9894199 0
7.5230122 -10.467174 -0.94447231 0
5.2080359 -7.1861587 -0.98675931 0
4.4514008 -6.1058798 -0.9792068 0
4.46629 -6.0959129 -0.97913527 0
3.9467678 -5.3541164 -0.99238575 0
10.096262 -13.684022 -0.54130423 0
7.6412873 -10.28252 -0.93845582 0
4.5357108 -6.0411153 -0.97877085 0
8.8495846 -11.751331 -0.77150059 0
5.3314118 -7.016757 -0.97581649 0
10.32455 -13.528838 -0.5401516 0
6.469574 -8.4103813 -0.9787308 0
4.0453997 -5.2098999 -0.9766221 0
7.8138809 -10.023028 -0.92703974 0
4.6494379 -5.9117045 -0.97302723 0
9.0972586 -11.521459 -0.77002835 0
5.4548182 -6.8473711 -0.96489573 0
10.551461 -13.19422 -0.53331065 0
7.9322662 -9.8484097 -0.92109561 0
5.4941449 -6.7726874 -0.9595257 0
4.1742883 -5.100471 -0.97594833 0
31.220045 -38.306095 1.3548274 0
30.973684 -37.808975 0.20620976 0
10.835247 -13.113751 -0.5373677 0
9.3597336 -11.266704 -0.76845646 0
9.3895245 -11.246694 -0.76831675 0
8.070159 -9.6140108 -0.90989435 0
6.7708869 -8.0164757 -0.9665668 0
5.6075411 -6.5933733 -0.95361769 0
4.8420715 -5.6579037 -0.95668185 0
31.727072 -37.147663 0.21050882 0
8.1486692 -9.439497 -0.90406752 0
4.8916292 -5.6131258 -0.95641923 0
9.6322756 -11.016955 -0.76192546 0
5.7114167 -6.4738603 -0.94796634 0
10.919124 -12.330966 -0.5091939 0
6.9487438 -7.7822118 -0.95532882 0
4.3669147 -4.8419814 -0.95963144 0
8.2964039 -9.180232 -0.89279437 0
4.9903426 -5.4688592 -0.9507066 0
9.8700733 -10.78727 -0.7605747 0
5.8199139 -6.3046241 -0.93713796 0
11.096112 -11.976738 -0.50250316 0
7.0819111 -7.5729418 -0.9443022 0
4.4659057 -4.732657 -0.9590627 0
8.4291267 -8.9110765 -0.8815434 0
5.074018 -5.3147087 -0.94000304 0
10.112881 -10.552595 -0.759233 0
5.9233918 -6.1254163 -0.93130612 0
11.202731 -11.547961 -0.48572031 0
7.2101474 -7.3687067 -0.93832421 0
4.5598493 -4.6133986 -0.9534837 0
8.5769978 -8.6618633 -0.87036216 0
5.9923692 -6.0060115 -0.92575872 0
5.1826777 -5.1605558 -0.93427205 0
33.103714 -33.022171 0.22902779 0
10.39532 -10.278111 -0.75769556 0
7.3286014 -7.1894116 -0.93247151 0
7.3384051 -7.1645079 -0.93236732 0
6.0663304 -5.8815923 -0.92019773 0
5.2468266 -5.0611405 -0.92882061 0
32.421108 -31.346666 1.2838131 0
31.41778 -30.210962 -0.77904963 0
31.959564 -30.583345 -0.79435229 0
11.165864 -10.606487 -0.45241895 0
8.7637691 -8.2682838 -0.85863245 0
8.7634783 -8.2284613 -0.85349607 0
8.7732477 -8.1985703 -0.85337615 0
7.4715261 -6.9404688 -0.92135811 0
5.3305902 -4.9120407 -0.91818058 0
5.3404698 -4.8971205 -0.9181155 0
33.607311 -30.880978 0.23772334 0
32.406883 -29.629566 -0.78010166 0
32.230091 -29.340878 -0.7744087 0
32.244198 -29.221174 -0.76896095 0
9.845747 -8.8399582 -0.6586839 0
7.5247493 -6.7065735 -0.91048038 0
4.7865911 -4.2210484 -0.93180823 0
33.961082 -30.092045 0.24114573 0
33.745552 -29.750362 -0.80306959 0
9.7184143 -8.4867134 -0.63271439 0
8.1712027 -7.0946193 -0.74068618 0
5.4588509 -4.6983733 -0.91228175 0
34.668526 -29.890575 0.2431116 0
33.343014 -28.599749 -0.77482402 0
9.5912018 -8.1484404 -0.61180651 0
6.3520074 -5.3494868 -0.89296067 0
11.237352 -9.4310617 -0.41330013 0
7.6018934 -6.3235126 -0.88410461 0
4.9101357 -4.0423455 -0.92606342 0
9.5994034 -7.894609 -0.59596813 0
7.5809793 -6.1892538 -0.87371051 0
4.9497986 -4.0026584 -0.92588496 0
8.127408 -6.5474458 -0.69899356 0
5.602078 -4.4747972 -0.906371 0
9.652874 -7.6855226 -0.59021616 0
6.470109 -5.1008921 -0.88200736 0
11.28342 -8.8733892 -0.39642838 0
7.5840287 -5.910809 -0.85283768 0
5.0137844 -3.8686442 -0.92039537 0
8.07514 -6.2093153 -0.67802215 0
5.6759534 -4.3257875 -0.90081942 0
11.226202 -8.5349655 -0.38545844 0
7.6077776 -5.7317786 -0.84225941 0
5.0530586 -3.7693737 -0.91505396 0
8.1942358 -6.0998096 -0.67751598 0
5.7301784 -4.2214823 -0.89544058 0
11.304646 -8.3208494 -0.37968323 0
7.6416464 -5.5726981 -0.83173752 0
6.612792 -4.7877736 -0.87087345 0
5.1173463 -3.6750984 -0.9147023 0
9.8484097 -7.0632906 -0.57301939 0
6.6473179 -4.723177 -0.87064099 0
5.131928 -3.6155636 -0.90951836 0
5.1418505 -3.6056454 -0.90947855 0
5.8240638 -4.0725322 -0.88989389 0
6.6667933 -4.6486688 -0.86540353 0
7.7101359 -5.3589087 -0.82102406 0
8.281683 -5.7317581 -0.66131616 0
9.8968086 -6.829421 -0.56726706 0
38.79549 -26.811422 1.3547672 0
12.00557 -8.2408075 1.63657 0
12.280285 -8.3967152 2.3715026 0
6.7110376 -4.5393171 -0.86504066 0
8.3811178 -5.6620526 -0.66598511 0
11.194691 -7.549686 -0.3525615 0
12.732227 -8.562274 1.3516411 0
12.229571 -8.1966238 1.9970084 0
5.9029126 -3.9086599 -0.88934612 0
7.798739 -5.1600246 -0.81534958 0
10.030302 -6.6203289 -0.56149113 0
12.472145 -8.2103348 -0.067713767 0
11.913039 -7.8177514 1.6076562 0
5.2453752 -3.3972781 -0.89879453 0
8.4599705 -5.4979362 -0.66542637 0
11.157682 -7.231319 -0.34171012 0
11.927775 -7.7072945 1.2729844 0
11.680196 -7.5271568 2.5681677 0
7.8728328 -5.0307455 -0.81490314 0
40.337849 -25.895348 1.3797007 0
11.664709 -7.4425302 2.5533822 0
5.9668856 -3.7597473 -0.88387704 0
7.9124751 -4.9810243 -0.81472063 0
40.997353 -25.92856 1.3905171 0
11.739239 -7.3777056 2.5586569 0
7.9372306 -4.9462166 -0.81459773 0
40.714924 -25.495684 1.3813723 0
11.778894 -7.3278756 2.5638437 0
7.9670172 -4.9163733 -0.81948268 0
40.522758 -25.117395 1.3771887 0
11.352719 -6.9840775 2.1542311 0
6.8334846 -4.1618161 -0.84888518 0
11.260266 -6.8630085 -0.33557108 0
11.237008 -6.8448782 2.1294591 0
6.0059319 -3.6158326 -0.87346637 0
8.5376282 -5.1399856 -0.64937449 0
12.580894 -7.5828147 1.6541661 0
11.772007 -7.0697422 2.8695297 0
8.6024809 -5.1249962 -0.65425789 0
12.690726 -7.572691 1.65933 0
5.3436813 -3.144347 -0.89305079 0
8.6522894 -5.1000743 -0.65913451 0
11.952956 -7.0570469 1.9047819 0
6.8725414 -4.0178256 -0.83847737 0
41.33847 -24.32497 0.27047613 0
11.785984 -6.8954825 2.8550057 0
10.270992 -5.9735303 -0.54944777 0
11.681246 -6.7895184 2.1801503 0
11.383842 -6.5940642 3.4003036 0
12.093225 -6.9854217 1.2601365 0
11.539789 -6.6469383 2.7953522 0
10.295487 -5.8939366 -0.5492152 0
11.765839 -6.7346778 2.190393 0
8.1951866 -4.6528053 -0.82354128 0
13.114703 -7.4675102 1.6901222 0
11.513762 -6.5333509 3.1006126 0
15.437522 -8.7225885 -0.13032746 0
5.3978395 -3.0154433 -0.88768971 0
8.7158632 -4.8763976 -0.65349948 0
11.925796 -6.6838527 1.8807101 0
6.9314284 -3.8440289 -0.83298922 0
40.568939 -22.6427 0.27403921 0
11.488284 -6.3732486 2.7609863 0
10.339279 -5.699966 -0.54367769 0
12.300635 -6.7836857 2.2558987 0
6.9511132 -3.794378 -0.83285058 0
40.626892 -22.308718 0.27499136 0
5.4172902 -2.9261668 -0.88246512 0
8.659771 -4.6876411 -0.63810325 0
13.924503 -7.5558023 1.7608535 0
6.1137533 -3.2734208 -0.86253178 0
11.440751 -6.1465583 -0.32352003 0
12.284971 -6.5937529 1.9113498 0
11.917477 -6.3685446 3.1564918 0
15.670082 -8.3439112 -0.13409323 0
11.261615 -5.9797745 2.3816905 0
4.478878 -2.3375137 -0.31211188 0
13.637699 -7.1979141 1.7214079 0
5.4417043 -2.8320065 -0.87723398 0
11.525556 -6.0264583 3.3668802 0
13.382116 -6.983428 1.3366392 0
11.486036 -5.9701734 2.7269685 0
4.5987439 -2.3527615 -0.2020323 0
12.599206 -6.5037165 1.9419208 0
6.1529031 -3.1345153 -0.85718262 0
4.5080924 -2.2790272 0.048035473 0
13.946594 -7.1237025 2.1119342 0
6.1476965 -3.0998278 -0.8521136 0
4.5082288 -2.2536783 -0.18691427 0
12.117784 -6.1105242 1.5523214 0
5.4960938 -2.7328372 -0.87696862 0
13.297422 -6.6562991 3.8123362 0
13.340297 -6.6550975 1.3273739 0
11.409474 -5.6717353 2.6875844 0
4.4077053 -2.149622 -0.17679781 0
12.186806 -6.0117407 1.8726252 0
11.664232 -5.7318821 3.0477192 0
4.2869306 -2.0712445 0.17324471 0
12.105552 -5.9089851 2.4977751 0
12.700358 -6.174273 3.6328096 0
4.6520133 -2.2260976 0.64327103 0
6.201921 -2.9708519 -0.8517884 0
4.2215943 -2.0018749 0.1733202 0
5.5053997 -2.613894 -0.86671627 0
4.2770076 -2.0109353 -0.16164669 0
11.960248 -5.6936569 1.8331085 0
11.517927 -5.4633756 2.9981718 0
4.1712976 -1.9424515 0.17838743 0
4.0518937 -1.8811394 -0.56160152 0
4.2068081 -1.9463444 -0.26159039 0
4.4263067 -2.0424383 0.51342046 0
11.858368 -5.5268531 2.7533813 0
4.1461973 -1.8976402 0.068446219 0
13.011268 -6.0204668 1.9584686 0
4.5173779 -2.0500367 -0.41651282 0
4.1057625 -1.8585675 0.2834813 0
5.5447965 -2.5098019 -0.86647546 0
4.1111636 -1.8426443 -0.13648292 0
12.840403 -5.8366637 1.9336954 0
12.74825 -5.7760801 3.603744 0
4.1104856 -1.82915 0.38853568 0
11.556853 -5.1939278 2.6737974 0
4.0456376 -1.7837862 0.078563556 0
12.368679 -5.5197654 2.1889033 0
4.2013445 -1.8372091 -0.36139986 0
3.9753892 -1.7293108 0.078600243 0
12.463489 -5.4947543 2.1990507 0
12.487328 -5.4820132 3.1841114 0
12.446352 -5.4339294 3.844173 0
3.9099953 -1.6701754 0.18364578 0
11.91675 -5.1580348 2.4192181 0
3.9805002 -1.6840287 -0.22631833 0
3.9597528 -1.6706806 0.38368437 0
3.8805816 -1.628878 -0.511307 0
12.776527 -5.4376469 3.5794883 0
3.8396659 -1.6009344 0.18870044 0
11.921092 -5.0286975 2.4144883 0
12.716452 -5.337388 3.2196362 0
3.8546755 -1.5808674 0.08874774 0
12.912641 -5.3846827 2.2547147 0
11.810177 -4.8951449 2.6946609 0
4.2806716 -1.7385812 -0.25617477 0
4.0143695 -1.6215098 0.4888033 0
3.9303055 -1.5794947 -0.51619327 0
13.361168 -5.4418221 3.70504 0
3.9641974 -1.5819271 0.4838244 0
3.8700881 -1.5350069 -0.50117159 0
13.511021 -5.431664 3.740202 0
12.909676 -5.1546693 3.9301839 0
3.7541177 -1.4622002 0.093848646 0
14.178055 -5.6115441 2.4304616 0
13.280934 -5.2263465 2.9753895 0
3.85869 -1.4681308 0.47891381 0
13.521063 -5.2104316 2.6706297 0
13.135073 -5.0325613 2.9406271 0
13.33479 -5.0728302 3.3207352 0
3.7833002 -1.3790904 0.47398388 0
13.665245 -5.0560026 2.6810503 0
5.4419732 -1.9748852 -0.81063354 0
13.158975 -4.8036981 2.9260752 0
4.1731267 -1.4642527 0.90914559 0
13.513385 -4.793982 3.3364084 0
4.097939 -1.4147332 0.89415908 0
13.988963 -4.8167286 2.7217677 0
13.667758 -4.6743603 3.3617549 0
3.9774842 -1.3009359 0.87421882 0
14.027703 -4.6182966 3.0721605 0
3.9523425 -1.2663578 0.86923921 0
13.967172 -4.4940453 3.0523171 0
13.686253 -4.3410897 3.3423309 0
13.90697 -4.369225 2.6824524 0
13.865999 -4.2206783 3.022675 0
14.160517 -4.135653 3.068048 0
5.498167 -1.5129074 0.82002723 0
5.5380983 -1.498022 0.82007134 0
5.5428066 -1.4586644 0.95511937 0
5.5726767 -1.4289498 0.96016979 0
5.6376925 -1.4038405 0.83024228 0
5.7042651 -1.4052448 -0.82470214 0
5.647368 -1.3545933 0.96529698 0
4.0309687 -0.92527938 0.86962211 0
5.7623053 -1.3095825 0.83542335 0
5.6987371 -1.2815155 -0.81458318 0
5.7921653 -1.274879 0.84047663 0
3.8617644 -0.82897747 -0.3654044 0
5.7568603 -1.2256511 0.97549796 0
4.0509114 -0.83577734 0.5746944 0
5.6982913 -1.1726205 -0.8094846 0
5.8166509 -1.1711047 0.98058391 0
3.8864338 -0.76501918 -0.27535447 0
4.1257806 -0.80111915 0.5797655 0
5.6830149 -1.1033623 -0.80443823 0
4.1456051 -0.77659386 0.67979175 0
3.9613934 -0.73016608 -0.38028398 0
4.0006208 -0.72690558 0.4747327 0
4.2303843 -0.76706868 0.88984513 0
4.1405239 -0.72700232 0.57981563 0
4.1014142 -0.71009076 -0.50018871 0
3.9309285 -0.67152697 -0.090276003 0
3.970618 -0.67722183 0.28473538 0
5.8460393 -0.99768704 0.98073828 0
4.1011353 -0.68082917 -0.30017325 0
3.9857142 -0.65705162 0.094759569 0
6.1763458 -1.0264273 0.72593522 0
4.041193 -0.6509136 -0.48519579 0
4.1109619 -0.65634358 -0.20015907 0
4.00563 -0.63234007 0.094782889 0
6.1061668 -0.97203958 0.72092593 0
4.0461049 -0.62626225 -0.48518631 0
4.1058602 -0.62672114 -0.20014948 0
4.0205469 -0.60764807 0.094800577 0
4.0255146 -0.59775013 0.094809398 0
4.0104027 -0.58808798 0.18980101 0
4.1452041 -0.6033172 0.47987306 0
4.2999864 -0.61852986 0.79496133 0
4.0408182 -0.56718349 -0.38516387 0
4.0907412 -0.56731337 -0.29513612 0
4.2106152 -0.5774008 -0.11006844 0
4.1003723 -0.55321783 0.089870274 0
4.1301951 -0.54859567 0.28488961 0
4.3049212 -0.56890893 0.68998361 0
4.130795 -0.53230435 -0.50009632 0
4.1306133 -0.52778625 -0.30010238 0
4.1904559 -0.52806479 -0.11006775 0
4.1152315 -0.50876653 0.089891329 0
4.1600718 -0.50909603 0.28491333 0
4.3647985 -0.5293262 0.69502991 0
4.3507695 -0.51718509 -0.53996229 0
4.2905345 -0.49786717 -0.32499126 0
4.2153153 -0.48359063 -0.11004105 0
4.150095 -0.4642548 0.089926288 0
4.1449237 -0.45972899 0.28491595 0
4.4346647 -0.48471597 0.70008993 0
4.2955742 -0.45798185 -0.52997673 0
4.2052736 -0.44392645 -0.21003851 0
4.1950059 -0.4345971 0.089955315 0
4.2946925 -0.43511003 0.48501891 0
4.5744138 -0.46018016 0.9301821 0
4.3153033 -0.42377201 -0.32496175 0
4.6801677 -0.45331571 -0.044740289 0
4.2747655 -0.40517884 0.28500915 0
4.4994802 -0.42036659 0.70514441 0
4.3804002 -0.3985745 -0.54491353 0
4.2952485 -0.37914774 -0.42496201 0
4.2799783 -0.36984062 -0.11497283 0
4.7350221 -0.40377825 -0.044693172 0
4.2547669 -0.35049185 0.085010126 0
4.3296132 -0.35073543 0.2850523 0
4.5593157 -0.36091721 0.71019661 0
4.4052267 -0.33923823 -0.5498873 0
4.435051 -0.33462954 -0.33987221 0
4.3348413 -0.32040486 -0.11994067 0
4.3096437 -0.30593807 0.085048914 0
4.4543476 -0.31133333 0.49513453 0
4.624114 -0.31652477 0.8252387 0
4.5300431 -0.29966128 -0.45980659 0
4.3848147 -0.2805694 -0.22990027 0
4.7997341 -0.29983681 -0.049636424 0
4.3595285 -0.26139152 0.080080807 0
4.3893633 -0.25676492 0.28509489 0
4.5292091 -0.2568427 0.49518287 0
4.5191841 -0.24699011 0.49517494 0
4.6840162 -0.24703254 0.7252804 0
4.4248905 -0.22067437 -0.54987013 0
4.4047828 -0.21103095 -0.43988565 0
4.4896994 -0.20607956 -0.34483197 0
4.4545932 -0.19647481 -0.23485866 0
5.0746131 -0.21499841 -0.1894531 0
4.7844467 -0.19112945 -0.049643517 0
4.4542923 -0.1673373 0.075138122 0
4.4641924 -0.15759872 0.1801441 0
4.5341058 -0.15269959 0.28518546 0
4.6089416 -0.14796095 0.50022984 0
4.6239181 -0.13804194 0.5002389 0
4.7738228 -0.13295564 0.62033641 0
4.8137188 -0.12315183 0.73536253 0
5.5798192 -0.13379835 -0.76411283 0
6.2648296 -0.14217176 -0.74366105 0
4.9944715 -0.096141487 -0.41450593 0
5.3094163 -0.095571421 -0.33430174 0
4.5242033 -0.068045333 -0.13482767 0
4.6190367 -0.05823838 0.0702364 0
4.5788651 -0.048793893 0.28520554 0
4.8436193 -0.043755163 0.62537944 0
4.8335986 -0.033902816 0.62536919 0
4.9335079 -0.028952215 0.74542725 0
4.7536402 -0.014168325 0.50530738 0
4.7487569 0.001029032 0.28530842 0
4.6938863 0.011098228 0.065267593 0
4.6837902 0.020784674 0.17525718 0
4.7286949 0.030610137 0.28528407 0
4.6987362 0.045576271 0.17526761 0
4.7387891 0.055715978 0.065290958 0
4.7287688 0.065567262 0.065280259 0
4.7738862 0.080886267 -0.159686 0
7.1341681 0.12239306 -0.71807766 0
6.1991591 0.12997322 -0.73370969 0
6.1941376 0.13982046 -0.73372102 0
6.1891007 0.15466049 -0.72872531 0
5.544126 0.15299843 -0.7591722 0
5.1531191 0.15959319 0.76554334 0
4.9782763 0.16440518 0.51541632 0
4.9982433 0.17932206 0.5204308 0
4.8134599 0.18424889 0.17529894 0
4.8685031 0.19941874 0.060336158 0
4.9236231 0.2147563 -0.17462692 0
6.153832 0.27830404 -0.7237767 0
5.4988775 0.26666105 -0.7492305 0
5.1929326 0.26356015 0.77053207 0
5.0930705 0.27354416 0.52546251 0
4.9532876 0.27858743 0.1703615 0
4.9883337 0.29370847 0.050383776 0
6.1186295 0.37723315 -0.71882451 0
5.4887118 0.35069361 -0.74927211 0
5.1579437 0.34794068 0.52547979 0
5.1281486 0.35823631 0.1654543 0
5.2233343 0.37882334 -0.20448166 0
6.1034808 0.45636156 -0.71886802 0
5.4635706 0.42482501 -0.74431884 0
5.098062 0.41253573 0.16540349 0
5.1532393 0.43300816 -0.1945582 0
5.4384828 0.47423318 -0.74435699 0
5.1779017 0.46704677 0.28543702 0
5.173018 0.48222283 0.045432061 0
6.9630756 0.66194117 -0.69831491 0
5.453383 0.53359562 -0.74438322 0
5.5524511 0.55654663 0.80565941 0
5.2877812 0.54652125 0.28547159 0
5.2678981 0.5616647 0.040457129 0
5.3080907 0.57710409 -0.33952317 0
6.9179058 0.76581186 -0.69339728 0
5.3932443 0.61751914 -0.73446977 0
5.4874926 0.64084375 0.54556686 0
5.4924722 0.65572602 0.54556489 0
5.4924517 0.67059791 0.54555994 0
5.4275956 0.67565817 0.28550681 0
5.3726645 0.68057102 0.16045929 0
5.3926439 0.69548279 0.16046527 0
5.4426842 0.71561396 0.030493617 0
5.492794 0.7359013 -0.22947839 0
6.8576565 0.93406969 -0.68852723 0
5.9928789 0.83221751 -0.70914197 0
5.5424495 0.78985298 0.28551742 0
5.5325685 0.80501366 0.025505871 0
6.2476044 0.92185831 -0.45400354 0
5.972795 0.89647651 -0.70420432 0
5.6273599 0.8643688 0.285528 0
5.6324701 0.88455826 0.020529389 0
8.087081 1.279948 -0.66777325 0
5.9427195 0.96072769 -0.70427382 0
5.6722765 0.93880206 0.2855126 0
5.6873875 0.95900863 0.015518248 0
8.0569687 1.374106 -0.66784453 0
5.9226379 1.0299915 -0.69933474 0
5.2778487 0.92868125 -0.72479594 0
5.7921662 1.0382376 0.28553316 0
5.8072777 1.0584395 0.010537207 0
8.0068674 1.4730735 -0.66295493 0
5.8975668 1.1041194 -0.69942069 0
5.9070702 1.1277871 0.28555799 0
5.8871913 1.1429229 0.0055383146 0
5.9722204 1.1730975 -0.13941503 0
7.931776 1.5719986 -0.65808284 0
6.7021899 1.3496867 -0.67393541 0
5.8524871 1.1930691 -0.69453132 0
5.1877203 1.0717897 -0.71499765 0
5.2076964 1.0916938 -0.71499169 0
6.0220046 1.2769421 0.14052875 0
6.1071615 1.312411 -0.29942301 0
7.8416772 1.7006019 -0.65325761 0
7.8316579 1.7204258 -0.64827561 0
6.6520939 1.4783039 -0.6740905 0
6.6520834 1.49316 -0.67410541 0
5.7873993 1.3165818 -0.6897018 0
5.1576304 1.1904173 -0.71013641 0
6.2268448 1.4560735 0.13555011 0
6.2718863 1.4811602 -0.014434218 0
6.4419441 1.5416157 -0.33432963 0
6.461936 1.5565078 -0.33433613 0
6.4969139 1.5814285 -0.33932665 0
7.6615739 1.8834424 -0.63356388 0
6.5769978 1.6365886 -0.66429961 0
6.5669904 1.6514295 -0.66432011 0
6.5419989 1.6562469 -0.66435671 0
5.7123232 1.464818 -0.6849184 0
5.0775809 1.3137101 -0.70535398 0
5.7023134 1.4895307 -0.68495476 0
6.5269642 1.72065 -0.66442573 0
6.6868391 1.7756225 -0.5243398 0
6.6718397 1.7854515 -0.51936841 0
6.6768289 1.8053205 -0.52437973 0
6.651773 1.8099886 -0.35941723 0
6.6117172 1.8146363 -0.19446066 0
6.6616936 1.8445745 -0.19944531 0
6.9415793 1.9398661 -0.21928048 0
6.6916099 1.8841927 -0.039461792 0
7.2912989 2.0697951 0.11090548 0
6.7764425 1.9387447 0.28555459 0
25.702414 7.3582935 3.4176166 0
24.1931 6.9809899 3.2366016 0
24.742821 7.2064419 3.3069086 0
24.857754 7.3013144 3.321933 0
24.337986 7.2053504 3.2615519 0
5.0175238 1.5114 -0.70064104 0
5.5772805 1.6870315 -0.67030716 0
6.3619394 1.9379765 -0.64982998 0
7.3515067 2.2541804 -0.61422801 0
7.7361546 2.3841238 -0.089012533 0
23.693226 7.3131485 3.1909032 0
6.3269396 1.9775014 -0.64490497 0
7.1613216 2.242871 0.11058602 0
23.478323 7.3573265 3.17066 0
6.3269444 2.0022159 -0.6449492 0
7.156384 2.2777195 -0.064457506 0
4.967535 1.5902867 -0.69580626 0
23.652107 7.5695868 6.1806979 0
14.663184 4.7274117 -0.069888324 0
22.723841 7.3607731 2.5249996 0
5.5072875 1.8055867 -0.66552353 0
7.5963264 2.4980295 -0.45926949 0
22.983725 7.5555611 2.5500491 0
6.2719569 2.0812991 -0.64509749 0
52.271931 17.344967 0.31276524 0
4.9425392 1.6594771 -0.69592083 0
6.2669582 2.1110117 -0.64514065 0
51.94162 17.487503 1.5823283 0
4.9225531 1.674193 -0.6959703 0
6.2419658 2.1356955 -0.64019501 0
7.4663796 2.5669498 -0.44948629 0
24.088995 8.3020411 0.29538697 0
23.323 8.0727501 4.3498554 0
6.2169781 2.1752408 -0.64027154 0
24.698538 8.6317644 0.9006238 0
24.127344 8.4679108 5.1153145 0
14.773123 5.2100301 -0.075279027 0
24.26758 8.5779877 4.525228 0
7.4164066 2.6461403 -0.44963184 0
24.35293 8.6837082 3.3152246 0
6.177 2.2246289 -0.63537884 0
14.838099 5.3494763 -0.075361073 0
24.152668 8.7270527 4.514976 0
24.666954 8.9616861 5.8753099 0
7.0516191 2.5902164 -0.59493852 0
25.307919 9.2895355 2.1805229 0
22.913048 8.4497948 4.8941746 0
7.3564525 2.7351718 -0.44481453 0
22.768755 8.4653492 3.1289308 0
24.292221 9.0752382 5.8048306 0
10.25015 3.8580403 -0.22322205 0
23.178419 8.7348452 3.774035 0
6.1120572 2.323436 -0.63559341 0
14.618248 5.5675354 -0.075830996 0
24.282749 9.2750225 4.5645227 0
6.0970683 2.3531411 -0.63564396 0
8.2510643 3.1951983 -0.3344675 0
24.438963 9.4925146 0.29449075 0
24.90724 9.6996641 5.3297691 0
6.9267149 2.7236006 -0.58525443 0
14.953154 5.8918595 -0.085867822 0
4.8076591 1.9062189 -0.6914469 0
6.9067392 2.7482874 -0.58531833 0
45.9189 18.292105 3.7609005 0
5.3224392 2.1364911 -0.65620613 0
8.1661444 3.2891698 -0.32968691 0
45.429218 18.325682 3.7303641 0
23.967869 9.7121572 5.1638212 0
8.2661219 3.3739672 -0.33969203 0
23.918526 9.7677441 3.3086169 0
5.3124666 2.1909516 -0.66129696 0
8.2011633 3.3935852 -0.3347849 0
7.3811555 3.0667524 1.0297467 0
5.9921827 2.5013578 -0.62598133 0
14.908299 6.2299004 -0.086323202 0
23.538502 9.8555651 4.4831171 0
7.1066833 2.9970832 -0.43544951 0
23.444658 9.9127302 0.29301366 0
23.663506 10.040145 4.5180359 0
8.1112537 3.4627171 -0.32998493 0
7.316299 3.1360955 0.839571 0
5.2575397 2.2649696 -0.65648198 0
8.0263128 3.4673228 -0.32509163 0
7.2863402 3.1607833 0.83949721 0
23.403378 10.168409 5.7177029 0
7.3265672 3.206212 -0.090507686 0
7.2914572 3.2057133 0.46944273 0
7.2413559 3.2002096 1.0243868 0
5.2225971 2.3192751 -0.65661526 0
6.6869831 2.9854496 -0.57091129 0
14.373738 6.4320722 -0.077154338 0
7.2115059 3.2449653 0.65428293 0
4.6678557 2.1133912 -0.68195641 0
5.187644 2.3637149 -0.65172398 0
5.8673744 2.6841726 -0.62142062 0
5.1826715 2.3834481 -0.65177715 0
5.1676855 2.3933041 -0.65180683 0
4.6329179 2.1577239 -0.67708516 0
4.6179295 2.1675847 -0.67711246 0
5.8274469 2.7484512 -0.62156999 0
5.8274603 2.763315 -0.62159729 0
5.1327548 2.4476171 -0.65194499 0
4.5929804 2.2070558 -0.67721474 0
4.5979896 2.2219336 -0.67723548 0
4.5880027 2.2318001 -0.67726183 0
4.588016 2.2416739 -0.67728627 0
4.5730333 2.2465358 -0.67731643 0
22.341114 11.044507 0.2903837 0
14.739112 7.3336248 -0.0929901 0
9.7610416 4.889729 -0.22518483 0
7.8318119 3.9431705 -0.33105102 0
6.7422485 3.4222577 -0.42154279 0
6.4174128 3.2769377 -0.55671024 0
5.0179625 2.5758293 -0.64232266 0
4.5081668 2.3303509 -0.67255688 0
9.5363054 4.963388 -0.21558151 0
6.6823874 3.5013566 -0.42176333 0
5.6728001 2.9906123 -0.61719501 0
4.4432569 2.3596783 -0.66770446 0
9.4664679 5.0675111 -0.21582693 0
6.5825219 3.5455718 -0.41196749 0
5.612905 3.044894 -0.61236358 0
4.9231625 2.684339 -0.63765049 0
4.4333463 2.4339204 -0.66785657 0
9.4416599 5.2165012 -0.22110924 0
6.6476326 3.6997645 -0.42714611 0
5.5580354 3.1140549 -0.61256266 0
4.4034362 2.4782801 -0.66799533 0
13.350572 7.5727901 -0.070018083 0
7.697413 4.3945951 -0.33697131 0
6.1679416 3.5436876 -0.54751647 0
4.8183856 2.7878628 -0.63298893 0
