# .PCD v0.7 - Point Cloud Data file format
VERSION 0.7
FIELDS x y z intensity
SIZE 4 4 4 4
TYPE F F F F
COUNT 1 1 1 1
WIDTH 1414
HEIGHT 1
VIEWPOINT 0 0 0 1 0 0 0
POINTS 1414
DATA ascii
13.407846 -2.2236516 2.2088463 0
9.7205639 -1.5740781 -0.63219678 0
14.285749 -2.344213 2.3338833 0
12.870545 -2.0672297 3.7183695 0
15.193136 -2.4681301 1.7339064 0
7.5056729 -1.1481863 -0.7830174 0
14.413418 -2.3012757 0.63350213 0
12.778127 -1.9950744 2.7379947 0
13.511234 -2.0881939 3.8829973 0
14.708841 -2.2796113 1.6881629 0
12.556179 -1.8988812 3.0025983 0
4.8451529 -0.65036607 0.29108587 0
5.8730168 -0.81434536 -0.83375061 0
4.6938291 -0.61182892 -0.26903716 0
15.017664 -2.2235782 1.7125951 0
13.573009 -1.9664778 3.2172196 0
4.733932 -0.59876579 0.18085253 0
5.8470659 -0.77030814 -0.82900226 0
4.7886567 -0.59397691 -0.049224347 0
13.224748 -1.8486729 2.4917657 0
4.8033633 -0.5844214 -0.16429749 0
14.703815 -2.0396111 2.0317535 0
4.7577915 -0.56676346 -0.38937441 0
4.9239407 -0.58332974 0.52560484 0
14.105803 -1.8846711 2.6363056 0
4.6870751 -0.53349364 -0.3795242 0
4.8933129 -0.55428523 0.52044994 0
13.99397 -1.802678 2.6159079 0
4.6415663 -0.50970531 -0.37463936 0
4.8476925 -0.52553326 0.52030754 0
13.96756 -1.7387661 2.6105499 0
4.5859566 -0.48110262 -0.3647733 0
4.8171778 -0.50145674 0.52018034 0
15.174619 -1.8293105 2.4451659 0
14.036197 -1.6489986 3.3049953 0
4.5104203 -0.43511301 0.18501192 0
14.074814 -1.6242296 2.284791 0
4.4998398 -0.42838129 -0.35003373 0
4.4850149 -0.41591686 0.18490854 0
13.77249 -1.5214021 2.2444165 0
14.208906 -1.5411441 3.334233 0
4.4545045 -0.39183033 0.18478212 0
14.468275 -1.5346276 2.6889789 0
13.957021 -1.4454536 3.6238675 0
4.6147156 -0.386906 0.50963086 0
14.467237 -1.4729966 3.038636 0
4.4936566 -0.36311975 -0.13543114 0
4.8951592 -0.39489177 0.74946368 0
6.5130782 -0.57377428 -0.79072785 0
4.4581537 -0.33910674 -0.13055283 0
4.5285959 -0.33429322 0.50437272 0
6.52245 -0.5438776 -0.79091513 0
4.3774815 -0.31162214 -0.23066279 0
4.3777204 -0.29835832 0.39426637 0
14.452845 -1.2698824 3.0274653 0
4.44209 -0.29609939 -0.34081039 0
4.2969766 -0.27144039 0.18915837 0
15.007064 -1.252243 2.4069309 0
14.616124 -1.1870177 3.0568633 0
4.3713684 -0.25736392 -0.22599271 0
4.2864442 -0.24150817 0.28898129 0
14.308679 -1.0915014 2.6515203 0
6.4346724 -0.41187185 -0.77664006 0
4.7614932 -0.25972691 -0.27128032 0
4.2256784 -0.20871644 0.18882194 0
4.7570729 -0.23841952 0.96361005 0
5.7525005 -0.31691554 -0.80669689 0
4.1696606 -0.1833363 -0.40129986 0
4.4000583 -0.19267651 -0.2314178 0
4.2195644 -0.16594128 -0.10644019 0
4.1244936 -0.15145771 0.19354588 0
4.2647891 -0.15203518 0.48844624 0
4.6956687 -0.17057608 0.9532398 0
5.7508755 -0.23777822 -0.80217266 0
14.171138 -0.72522062 2.9645255 0
4.3636942 -0.12974939 -0.33177933 0
4.3284764 -0.11502572 -0.22183958 0
4.1280923 -0.09372209 -0.10181695 0
4.2130117 -0.09262605 -0.2068913 0
4.2728992 -0.086546659 -0.21697325 0
4.3181753 -0.066501871 0.59288573 0
3.9872425 -0.040716201 0.19296986 0
4.4627981 -0.03224517 0.91757786 0
3.9663084 0.0027449075 0.10271817 0
3.9759758 0.011807985 -0.087346345 0
4.9510822 0.0051874709 -0.41302112 0
3.9951136 0.039783511 -0.47253421 0
3.9855037 0.059382286 0.47236916 0
5.6345239 0.076524429 -0.77893722 0
5.5092688 0.088883489 -0.75891995 0
5.5112009 0.50432527 -0.76130652 0
5.5004497 0.54368597 -0.76152086 0
5.9764562 0.83471054 0.98655534 0
5.4973345 0.79030836 1.0621237 0
6.0397911 0.92513859 0.99601519 0
6.1685481 0.98659599 0.86559105 0
5.5401454 0.90992445 1.071434 0
6.137218 1.0658122 1.0101824 0
5.5537024 0.9893564 1.0759894 0
5.282968 0.94962573 -0.73363757 0
4.0616412 0.81672311 0.66791058 0
5.1732268 1.0155023 1.0210969 0
5.241477 1.0328928 -0.72406483 0
3.9403608 0.88219333 0.4726193 0
3.9601843 0.89246064 0.47254837 0
3.9650111 0.90243179 0.47248971 0
3.9998012 0.9184798 0.56737989 0
4.1142917 0.95117515 0.67712843 0
4.7320385 1.0846801 0.96100557 0
4.063292 0.95401752 -0.50286961 0
4.0184007 0.9535467 -0.39783785 0
4.0132308 0.96332246 -0.39788815 0
3.9981649 0.96792853 -0.39290485 0
4.0029936 0.97790086 -0.3929632 0
4.0078907 0.98835605 -0.29802278 0
4.0027218 0.99813193 -0.2980729 0
3.9975529 1.007908 -0.29812297 0
4.0972018 1.0356805 -0.11333686 0
4.05724 1.0347979 -0.10830763 0
3.9626224 1.0238371 0.091814354 0
3.922724 1.0234152 0.18684232 0
4.0870461 1.0729809 0.47647318 0
4.3162613 1.1345203 0.90599906 0
4.0312901 1.0717905 -0.50349784 0
3.9615064 1.0658622 -0.39342025 0
3.9714038 1.0764151 -0.29848334 0
3.9863012 1.0870645 -0.20355049 0
4.0060334 1.1023241 -0.20364574 0
4.0257616 1.1175606 -0.20874077 0
4.0803151 1.1379682 -0.31388804 0
4.0950489 1.1531317 -0.313979 0
4.0999494 1.1635835 -0.21903765 0
4.2490654 1.2112837 -0.23438898 0
4.2637968 1.2264197 -0.23947951 0
4.0995274 1.1937338 -0.11419898 0
4.1043577 1.2036778 -0.11925617 0
4.1788588 1.2354784 -0.024472088 0
4.188693 1.245543 -0.024533242 0
4.1984301 1.2606064 -0.02461955 0
4.646018 1.3945491 0.054383576 0
4.6508546 1.4045111 0.054326952 0
4.2730026 1.3092605 0.49007893 0
4.2727437 1.3241283 0.49000102 0
4.4120364 1.3727974 0.70965648 0
4.4965591 1.4049017 0.8294332 0
4.2566757 1.3382843 -0.56007862 0
4.3411584 1.3757943 -0.36032805 0
4.3608971 1.3910481 -0.36042181 0
4.3905349 1.4114674 -0.36554858 0
4.39537 1.4214077 -0.3706049 0
4.2908936 1.399896 -0.2454237 0
4.3306789 1.4215622 -0.04056111 0
4.6637001 1.5332849 0.048639372 0
4.3804421 1.45994 0.49421203 0
4.5395551 1.5190165 0.72380275 0
4.6887803 1.5729982 0.97342658 0
4.2847672 1.4525182 -0.57070196 0
4.3443599 1.4845608 -0.36590496 0
4.3145537 1.4849628 -0.14588568 0
4.6028605 1.5863565 0.053401574 0
4.4540009 1.5455976 0.49871463 0
4.6727195 1.6314234 0.85313177 0
4.8404503 1.6869467 -0.68728483 0
4.3584695 1.5391967 -0.36620155 0
4.3831916 1.560066 -0.26132467 0
5.0491266 1.7884748 -0.097939432 0
4.3384805 1.5661217 0.17367741 0
4.5124803 1.6359545 0.50320691 0
4.666513 1.6999286 0.73777902 0
4.8055739 1.7581151 0.87238955 0
4.8142743 1.7605215 -0.68764842 0
4.7942224 1.765033 -0.68265855 0
4.8138714 1.7852509 -0.68777525 0
5.3304272 1.9751121 -0.65408933 0
4.8084707 1.8098854 -0.68789792 0
4.8292727 1.8377779 0.87696457 0
4.7981668 1.8294266 -0.6879915 0
4.7582178 1.8285874 -0.67796075 0
4.7530661 1.8383588 -0.67800736 0
5.2794428 2.0383415 -0.6493758 0
5.2791953 2.053175 -0.65445065 0
5.2640519 2.0627763 -0.64948881 0
5.9591827 2.3309271 -0.62131298 0
4.7124095 1.8819337 -0.67820346 0
4.8969722 1.9722896 0.76623273 0
4.7376094 1.9278909 0.51156092 0
4.7473669 1.9429656 0.51647788 0
4.5979304 1.8982676 0.16179904 0
4.6520491 1.9324056 -0.19341418 0
6.8508573 2.801681 -0.59427607 0
5.1974001 2.1701779 -0.64498413 0
4.9648399 2.1025243 0.77553034 0
4.9944105 2.1279666 0.78038275 0
4.6958346 2.0241613 0.1560975 0
4.7697606 2.0686216 -0.20917988 0
6.7594461 2.8939266 -0.58466148 0
5.7914505 2.5105119 -0.61208713 0
5.7862167 2.5252707 -0.61215615 0
5.1259189 2.2676411 -0.64042139 0
5.7658448 2.5496039 -0.61226153 0
5.7508035 2.5542037 -0.60727346 0
5.1054912 2.2968504 -0.64055252 0
5.2601886 2.387212 0.94391263 0
4.9966526 2.2901373 0.52956998 0
4.9019938 2.2619934 0.27477121 0
4.8967624 2.2711506 0.14972779 0
4.9014335 2.2911034 0.14962606 0
4.9654508 2.3302789 -0.23561642 0
6.5917516 3.0736661 -0.58041072 0
5.6640592 2.6711867 -0.60278416 0
4.9842796 2.3833008 -0.63089538 0
4.507978 2.1791747 -0.66456151 0
4.9992204 2.4269419 0.14388908 0
5.1079531 2.49316 0.0084870756 0
5.7471328 2.8032269 -0.32348183 0
5.5929317 2.7489014 -0.59811056 0
4.462224 2.2325847 -0.65979481 0
4.4570823 2.242363 -0.65983808 0
5.1911917 2.6151588 0.27284175 0
5.180964 2.6298332 0.27277941 0
5.1559181 2.6285808 0.13780333 0
5.2646565 2.6947646 -0.0025948286 0
5.2643342 2.7089648 -0.13766313 0
7.5039926 3.8281238 -0.51967645 0
7.4886904 3.847681 -0.51975513 0
7.4685755 3.8571734 -0.51478136 0
5.3327703 2.80462 -0.14816681 0
5.3473597 2.8297493 -0.14829645 0
5.4166718 2.8765292 -0.013567716 0
5.4014421 2.8854365 -0.15359926 0
5.4657569 2.9321225 -0.018866092 0
5.4704423 2.9520679 -0.018963128 0
5.4009728 2.9313815 0.13119012 0
5.4205613 2.9565747 0.12605733 0
5.4352469 2.9766989 0.12595266 0
5.4547496 3.0069144 0.12579605 0
5.4843535 3.0380087 0.27062997 0
22.451168 12.083652 3.7901947 0
4.7553277 2.6653354 -0.61707079 0
6.2112379 3.4619606 -0.56192505 0
5.6020923 3.1525919 -0.1750004 0
5.5873699 3.1593151 0.26998606 0
4.2545061 2.4357088 -0.64561033 0
22.600893 12.494103 5.6932611 0
5.6756959 3.2384536 -0.18545485 0
22.013172 12.242737 2.5599051 0
5.3086853 3.0547483 -0.58431697 0
6.1551452 3.5400827 -0.55723536 0
5.7691407 3.3404105 -0.040997028 0
21.822891 12.333852 3.7297077 0
5.2683964 3.0786054 -0.58439422 0
7.1098585 4.1321793 -0.50072587 0
5.7883511 3.4068024 0.26868671 0
22.226782 12.751697 5.0325017 0
21.826216 12.587507 6.7936196 0
5.8373761 3.4673965 0.26837051 0
22.401506 12.995214 3.2312899 0
4.6237655 2.7861836 -0.60753119 0
6.0490103 3.6270151 -0.55254126 0
5.9207387 3.5684612 0.26784205 0
22.939371 13.503654 5.2135754 0
6.0138631 3.6410911 -0.55257475 0
5.9598627 3.6238713 0.26755923 0
22.269032 13.250241 5.080318 0
6.1768494 3.7752249 -0.23831496 0
22.296906 13.334216 3.8549502 0
5.9784217 3.6750429 -0.5476979 0
22.710047 13.652756 2.0581589 0
4.5629549 2.8492115 -0.60277426 0
6.1414113 3.8091419 -0.23843661 0
6.0821905 3.7903271 0.26670501 0
4.1172013 2.6108024 -0.6363256 0
5.9179583 3.7134011 -0.54281914 0
23.096554 14.173471 2.0955532 0
4.5324421 2.8881533 -0.60292923 0
6.1006827 3.8628478 -0.23364297 0
23.089437 14.312661 2.0999691 0
22.116732 13.772453 5.733252 0
6.4167342 4.0930557 -0.26494482 0
22.133581 13.860327 3.2528639 0
5.0510092 3.2670636 -0.57007658 0
6.4309716 4.1430082 -0.26517966 0
41.89513 26.388859 3.5948699 0
21.459162 13.635812 4.9894857 0
6.4749379 4.2084656 -0.2705082 0
41.54969 26.446449 3.5749819 0
22.292835 14.310907 5.1857839 0
6.4843044 4.259151 -0.095739841 0
20.649611 13.326507 4.2416372 0
4.9902849 3.3252008 -0.56528854 0
6.5329738 4.3338408 -0.28111586 0
22.619566 14.741662 3.3486464 0
21.186443 13.871691 5.5787725 0
7.9711795 5.309525 -0.18670192 0
22.642754 14.894448 4.0029917 0
22.005188 14.546589 5.8000941 0
6.9767079 4.7059069 -0.32315108 0
41.197617 27.275669 3.5818944 0
21.730659 14.507812 5.1155319 0
5.6758118 3.8915639 -0.53340411 0
7.9495511 5.4232969 -0.18717542 0
21.667742 14.62192 3.2501264 0
20.328955 13.783414 5.4200206 0
6.5696564 4.5472026 -0.47708741 0
15.510265 10.608308 0.22827615 0
3.9350457 2.7898042 -0.6270057 0
21.299709 14.645805 5.6854072 0
6.519258 4.5808592 -0.47718927 0
7.8632932 5.5207596 -0.18751475 0
49.91621 34.492683 4.3327231 0
3.9047174 2.8187873 -0.62711287 0
3.8945923 2.8284893 -0.62714934 0
3.8796468 2.8281293 -0.62213528 0
3.8794298 2.8429823 -0.62720263 0
4.7833042 3.4940796 -0.55586791 0
6.4182816 4.6630507 -0.47245374 0
6.398181 4.6725478 -0.47247687 0
6.6795745 4.8930693 -0.31369099 0
6.659564 4.8975644 -0.31369022 0
6.3627048 4.7114739 -0.47261176 0
6.3476038 4.7210603 -0.47263864 0
5.4039917 4.0591917 -0.51889932 0
6.3074961 4.7350841 -0.46766135 0
5.3837743 4.0785618 -0.51896453 0
4.6921515 3.5911789 -0.55621731 0
4.173501 3.2218494 -0.58914065 0
3.7782648 2.9446816 -0.62257886 0
15.137892 11.49613 0.22495776 0
15.127273 11.540686 0.22478595 0
6.6814585 5.1873822 1.0450624 0
3.7381299 2.9635291 -0.61762941 0
4.6116233 3.6438935 -0.55137706 0
6.1612554 4.8460789 -0.46299991 0
7.1729436 5.6448488 -0.16737822 0
15.044352 11.752978 0.22399643 0
6.5760794 5.2297497 1.0399823 0
3.7075253 3.0124083 -0.61782277 0
4.5611491 3.6873763 -0.55152202 0
6.0806866 4.8989501 -0.46315017 0
14.873456 11.839013 0.2238268 0
6.5155354 5.2780581 1.0348361 0
4.5309048 3.7114925 -0.54659927 0
6.5832582 5.3636961 -0.13560864 0
6.5239134 5.3384352 0.064559817 0
6.4749579 5.3159952 0.83971405 0
6.4502211 5.3222036 1.2297156 0
4.0020995 3.3567154 -0.57958829 0
5.121654 4.276196 -0.5095768 0
6.211587 5.1807823 -0.29947004 0
6.1865821 5.1852045 -0.29946467 0
5.9345717 5.0049996 -0.45845863 0
5.0712433 4.3147926 -0.50969541 0
4.424984 3.7984192 -0.5418812 0
3.9414713 3.4148269 -0.57978952 0
3.5665801 3.1131504 -0.60814905 0
14.072794 12.006546 0.22402295 0
8.9399786 7.7073584 -0.027799636 0
6.942924 6.0423989 -0.16881767 0
6.0256 5.2859993 -0.29472926 0
5.7934823 5.1111684 -0.4537662 0
4.9601517 4.4165773 -0.505023 0
4.3093395 3.8702044 -0.53708351 0
4.3041477 3.8849909 -0.53714263 0
3.8407516 3.4918046 -0.57503271 0
3.4709046 3.1852655 -0.60338283 0
3.4559596 3.1848962 -0.60336828 0
3.4508448 3.1946945 -0.60340643 0
3.4506428 3.2095513 -0.60847104 0
13.52506 12.29388 0.22348244 0
13.174475 12.037714 0.22491065 0
8.4350748 7.7911501 -0.017601073 0
6.636765 6.1848903 -0.16409099 0
5.7990422 5.4450045 -0.29016337 0
5.7987003 5.4698329 -0.29526642 0
5.5323172 5.2495222 -0.44408193 0
5.5221457 5.2642107 -0.44413283 0
5.5022264 5.2637353 -0.44410858 0
4.7289052 4.5603356 -0.49540159 0
4.72364 4.580092 -0.50048041 0
4.7037158 4.5796494 -0.49545822 0
4.6985364 4.5944324 -0.49551466 0
5.4218831 5.3067098 -0.43920448 0
5.4017978 5.3162351 -0.43922511 0
5.386795 5.3208447 -0.43922696 0
4.6433249 4.6229887 -0.49557891 0
4.0326762 4.0574861 -0.527619 0
3.609329 3.6551054 -0.56552124 0
3.5943067 3.6597376 -0.56552792 0
3.2447808 3.3286505 -0.59380317 0
12.41049 12.470115 0.22407232 0
7.8198004 7.9372635 -0.0075088441 0
6.4319692 6.5832295 -0.17049947 0
5.4476418 5.6261668 -0.28554466 0
5.2160382 5.4165077 -0.43444344 0
4.4828911 4.6939454 -0.48571327 0
4.4629645 4.6934872 -0.48569092 0
5.3677387 5.6393065 -0.28051141 0
5.3870749 5.6844664 -0.28571633 0
5.1407084 5.4595799 -0.43454012 0
4.407764 4.7220654 -0.48575351 0
3.8470006 4.157506 -0.5178566 0
3.4387398 3.745456 -0.55574369 0
3.1140664 3.419822 -0.58907378 0
11.44039 12.31078 0.22586162 0
7.4537239 8.0987129 -0.0077398717 0
7.4531827 8.1385412 -0.0078998804 0
7.4478874 8.16329 -0.007989645 0
7.3884163 8.1371489 -0.007817477 0
11.220581 12.346113 0.22599259 0
3.038981 3.4478335 -0.58412421 0
6.062047 6.7786708 1.9541365 0
3.3482089 3.8128221 -0.55593884 0
3.7164121 4.238925 -0.51806438 0
5.8785315 6.6445141 0.66487718 0
5.8004203 6.5836592 1.8952106 0
5.8874826 6.6868048 0.04969053 0
5.8196588 6.6327929 1.6950029 0
5.0517569 5.7915282 -0.27579042 0
5.8090711 6.6556454 1.2799172 0
4.1574841 4.8108854 -0.4708592 0
5.9508028 6.8460779 0.88399136 0
5.6124716 6.4857407 2.0658176 0
6.2692661 7.2393303 0.47205469 0
5.7051663 6.626339 1.8901463 0
5.8069181 6.7497635 0.049528986 0
6.7064891 7.8025675 1.9293267 0
4.9863834 5.8398089 -0.27090964 0
6.0426965 7.0729904 1.1129856 0
3.6112149 4.2861643 -0.51315153 0
5.7617826 6.7844949 0.25444591 0
2.9383531 3.5297596 -0.584373 0
4.7447181 5.6398177 -0.41984156 0
5.9526401 7.0741954 0.68307614 0
3.2029757 3.8740215 -0.54605329 0
5.7307544 6.8467398 -0.16077271 0
5.9178867 7.0901923 1.1080602 0
3.5559943 4.3197026 -0.50823331 0
5.6763115 6.8423858 0.25431213 0
2.9030008 3.5686398 -0.58450198 0
4.6645803 5.6728635 -0.41988578 0
5.8721061 7.1371508 0.68292111 0
3.1627262 3.9078064 -0.54615176 0
5.635613 6.8845081 -0.15581104 0
5.797996 7.1124911 1.1031092 0
3.5008533 4.3482294 -0.50829268 0
5.5958447 6.9003701 0.25417566 0
2.8431396 3.5771518 -0.57948101 0
4.5696902 5.6907058 -0.4148533 0
5.7866554 7.1950178 0.67779267 0
3.1174002 3.9465177 -0.54626763 0
5.5599113 6.9575806 -0.1560156 0
5.7126274 7.1653824 1.1030023 0
3.4456363 4.3817616 -0.50837326 0
5.5203071 6.9634404 0.25401533 0
2.807795 3.6160419 -0.57960856 0
4.4797244 5.7136359 -0.40984586 0
5.7012167 7.2529144 0.67766571 0
3.0674 3.9651554 -0.54629207 0
5.4794593 7.015583 -0.15614954 0
5.4800563 7.0408087 1.0787654 0
3.3805881 4.4051633 -0.50340235 0
5.4397745 7.026444 0.2538597 0
2.7578568 3.6297257 -0.57461607 0
3.8164768 4.9921217 -0.46122703 0
5.4044447 7.0497108 0.048806369 0
6.2338505 8.130969 1.9185998 0
5.1847086 6.8147502 2.060003 0
4.6145186 6.0903821 -0.27149025 0
5.3108473 7.0163174 0.86406028 0
5.247479 6.9597149 1.884357 0
3.7513046 5.0254841 -0.46129075 0
5.3290606 7.1136937 0.25364742 0
2.6878006 3.6578588 -0.57466483 0
3.285341 4.457613 -0.50351274 0
5.3083615 7.1513186 -0.15647882 0
5.167017 6.990025 1.2593379 0
5.0839748 6.9021511 2.0597799 0
4.5139661 6.1628757 -0.27166292 0
5.5185022 7.5288124 0.90180457 0
5.1417608 7.0470371 1.8841405 0
3.6660559 5.073297 -0.46138731 0
5.2184377 7.1959658 0.25345898 0
2.6129913 3.6709721 -0.56464493 0
3.6360533 5.0825863 -0.4613916 0
5.1882501 7.2202125 0.25340474 0
2.6125553 3.7057347 -0.56978488 0
4.9734087 6.9794173 2.0596144 0
4.4234195 6.2355494 -0.27183399 0
5.138011 7.2540059 0.25334084 0
2.5825801 3.7149444 -0.56978905 0
4.9281578 7.0132818 2.0595448 0
4.1090403 5.8846202 -0.40508476 0
5.0876374 7.2869267 0.048278883 0
5.8568306 8.3969488 1.9180536 0
4.8828301 7.0521522 2.0594537 0
4.0639915 5.9035645 -0.40010086 0
5.0470328 7.3350086 -0.15685382 0
5.820931 8.4649363 1.6828426 0
4.0289321 5.9177709 -0.40011492 0
5.795577 8.4723215 1.1978428 0
3.0748713 4.5671821 -0.49870989 0
5.784761 8.509984 0.72270429 0
2.7518871 4.1168418 -0.53156865 0
4.9771719 7.370122 0.25311071 0
2.4924059 3.7625084 -0.56488121 0
4.9665422 7.3980775 -0.1569891 0
4.8942537 7.314652 1.6884474 0
6.1272664 9.1524067 3.6548305 0
4.8741431 7.3183074 1.4784591 0
4.2274418 6.3757071 -0.27212158 0
2.4672754 3.7817819 -0.56993091 0
4.9212346 7.4369464 -0.16207561 0
2.457262 3.7865438 -0.56493938 0
2.9948275 4.6001782 -0.49374363 0
2.9798212 4.6048355 -0.49374583 0
2.9746594 4.6196456 -0.49379757 0
3.360507 5.2207365 -0.45659152 0
4.1518364 6.4487848 -0.27230313 0
6.0178742 9.3289461 -0.010707498 0
33.486103 51.48848 7.2079654 0
2.6267431 4.1736174 -0.53165138 0
4.6063104 7.2603874 2.0640278 0
2.904701 4.6429052 -0.49380353 0
4.0815344 6.497076 -0.27239457 0
5.0724182 8.0827408 -0.18972108 0
15.296657 24.211117 0.84059596 0
2.5816112 4.2023911 -0.53171122 0
4.6286731 7.4761348 2.3181849 0
4.0262189 6.5407314 -0.27248892 0
15.082129 24.237011 0.83582652 0
2.5466597 4.2115583 -0.52670753 0
3.6787958 6.049582 -0.39517042 0
3.9859629 6.5747237 -0.27756539 0
4.9469104 8.1648664 -0.1898576 0
31.57551 51.601826 5.6855078 0
30.00503 49.244419 10.906473 0
2.7844949 4.7048612 -0.49389949 0
3.125706 5.2902308 -0.44656745 0
3.910753 6.617959 -0.27762976 0
6.1782994 10.423852 -0.040023565 0
30.967657 51.92429 4.2702842 0
2.4615705 4.2543135 -0.52677298 0
2.7197092 4.7133512 -0.48885325 0
3.8554494 6.6616302 -0.27772197 0
4.776422 8.2610598 -0.18998402 0
8.6708126 14.947564 0.21960928 0
29.380934 50.577187 4.1426721 0
29.129267 50.341892 10.993876 0
2.669539 4.7470551 -0.48892179 0
2.9956677 5.3421345 -0.44660303 0
3.4339325 6.1289849 -0.39015123 0
3.7599852 6.7343378 -0.27786693 0
5.9077439 10.558113 -0.040132642 0
12.039555 21.46517 0.76063371 0
2.1420593 3.9331613 -0.56016123 0
2.3365407 4.3061776 -0.52682936 0
2.9108498 5.3602099 -0.44156495 0
4.6098218 8.4470758 -0.19544509 0
8.2265558 15.033878 0.21995939 0
8.1866789 15.038101 0.220006 0
8.1516514 15.0524 0.22000778 0
27.297216 50.334724 4.0618901 0
2.0721238 3.9564085 -0.56017375 0
2.8358805 5.3884254 -0.4415749 0
8.0464211 15.105299 0.21997213 0
27.57641 51.644421 6.8817592 0
2.2416251 4.3388515 -0.52184379 0
2.4845841 4.817595 -0.48396656 0
3.2040849 6.2038188 -0.38513121 0
7.8235731 15.011256 0.22065683 0
26.607973 50.962109 5.4157634 0
2.0071957 3.9797614 -0.55518925 0
2.1965911 4.3626695 -0.52187943 0
2.1914351 4.3774924 -0.52193034 0
2.7160137 5.4256768 -0.43656304 0
3.1092584 6.2267456 -0.38009182 0
4.2605233 8.5197964 -0.19021806 0
4.2454925 8.5294466 -0.19022903 0
5.3718915 10.816921 -0.040296704 0
7.1731014 14.480001 0.22358923 0
10.639601 21.529173 0.74758852 0
10.570175 21.507933 0.74777663 0
27.137573 55.253201 7.2195015 0
2.0916061 4.4051027 -0.52191877 0
2.9894681 6.2590704 -0.38004985 0
3.4792662 7.3016224 -0.30460134 0
4.085485 8.5910683 -0.19022673 0
10.324641 21.633284 0.74770677 0
1.8624858 4.0211625 -0.55018222 0
2.5511088 5.4868441 -0.43657956 0
2.9145555 6.2824111 -0.38003626 0
4.0005951 8.6143179 -0.19019133 0
5.0668139 10.935743 -0.040278107 0
5.0417418 10.950237 -0.040295273 0
5.0168939 10.949732 -0.040250897 0
6.4410892 14.106919 0.22607553 0
9.8129787 21.549116 0.74382979 0
23.973204 52.684299 6.8039269 0
1.7873275 4.0691886 -0.55027843 0
1.7725387 4.0588746 -0.55022168 0
2.1549649 4.9297547 -0.47897801 0
2.1400402 4.9294357 -0.47895911 0
2.1299689 4.9391885 -0.47898397 0
2.3814449 5.5330129 -0.43152991 0
2.3665271 5.5326915 -0.43150923 0
3.1743865 7.4150705 -0.30459198 0
4.7368488 11.059156 -0.040231436 0
9.23561 21.548693 0.73476285 0
23.335527 54.473236 9.7686357 0
1.6876096 4.0917754 -0.55024934 0
1.6922344 4.1217303 -0.55536687 0
1.8321654 4.478878 -0.51188266 0
2.6199384 6.3759518 -0.37498185 0
4.5868101 11.121202 -0.035229623 0
8.8824224 21.532433 0.73538798 0
11.851144 28.794071 5.2645416 0
2.0000014 4.9961028 -0.47903147 0
2.9996476 7.4664278 -0.29953369 0
5.5060506 13.66027 0.22914736 0
12.229949 30.316889 4.7384458 0
1.9553012 4.99016 -0.47895488 0
4.4319181 11.173182 -0.035184026 0
11.862712 29.787701 3.8959446 0
1.9353126 4.9996939 -0.47396359 0
5.3762755 13.692826 0.22923277 0
11.496435 29.259592 4.5684438 0
2.4701452 6.42273 -0.37495121 0
11.184215 28.668676 3.026057 0
1.8956116 4.9938273 -0.47389051 0
11.580918 29.908808 1.6509395 0
1.6974218 4.5206842 -0.51187599 0
3.3512068 8.8260565 -0.18501967 0
11.746819 30.705084 3.9828508 0
1.8655516 5.0131044 -0.47392353 0
5.1720076 13.714047 0.229476 0
10.841695 28.716259 5.1914821 0
2.3803456 6.4458156 -0.37491259 0
10.986693 29.344801 3.0789578 0
1.8304933 5.0323119 -0.4739531 0
5.0385542 13.641714 0.22994569 0
1.4929705 4.157021 -0.54526639 0
2.7400222 7.5460477 -0.29945561 0
10.744245 29.273502 3.7946329 0
1.8005087 5.0465918 -0.47396567 0
7.8657689 21.649382 0.73162532 0
10.649543 29.3808 6.0343623 0
3.1615982 8.8723087 -0.18491089 0
10.217543 28.437672 4.4034996 0
1.9870042 5.664185 -0.43149498 0
10.530803 29.54892 2.348978 0
1.5775503 4.5678372 -0.51190484 0
4.7996116 13.652349 0.23028398 0
10.480654 29.757757 6.0882936 0
3.0818043 8.8907213 -0.18485677 0
9.8860874 28.314766 5.079495 0
1.9321293 5.6780314 -0.42647514 0
10.333704 29.833256 3.0983007 0
1.7009062 5.0594087 -0.47388771 0
10.776848 31.343962 1.6971534 0
10.206541 29.830967 6.8434963 0
7.406714 21.751308 0.72701192 0
1.5128311 4.5763593 -0.51185656 0
4.5955548 13.658654 0.23058295 0
9.8549671 29.242035 5.9611778 0
2.9619095 8.9333496 -0.18483368 0
9.6839046 28.97607 5.1724782 0
2.1308055 6.5205274 -0.37484041 0
9.5793886 28.898663 3.7129104 0
1.8472246 5.7111454 -0.4264814 0
10.070324 30.613382 3.1609645 0
9.4667177 28.926123 7.3529763 0
7.1260061 21.916374 0.73187613 0
1.4529035 4.5999565 -0.51187015 0
3.5092022 10.961318 -0.023003429 0
1.442904 4.6047244 -0.51187563 0
3.4842098 10.970849 -0.023000211 0
1.4329046 4.6094918 -0.51188111 0
4.2884116 13.553267 0.2314472 0
1.4229754 4.6092601 -0.51186705 0
4.2728195 13.607924 0.23127598 0
8.771637 27.903618 5.6627622 0
2.7724605 8.9696913 -0.18468463 0
1.273636 4.2118139 -0.54521167 0
2.3598843 7.7232156 -0.30455521 0
9.0485067 29.255152 5.1825461 0
2.3449228 7.7279024 -0.30454835 0
9.2419405 30.118284 5.3241482 0
2.3298242 7.7425861 -0.30458006 0
8.7943106 28.885893 5.1142931 0
2.3099332 7.7422047 -0.30455056 0
8.7723856 29.050499 5.1387429 0
2.2949724 7.7468929 -0.30454364 0
8.8172808 29.446211 5.2022552 0
8.7743616 29.470171 8.9522161 0
8.3638458 28.20335 3.5974205 0
1.906317 6.5809054 -0.36974987 0
9.1919136 31.233404 3.1902342 0
1.6527245 5.7619786 -0.42640695 0
9.5318871 32.675514 2.529515 0
1.451687 5.1188612 -0.46878192 0
4.0193148 13.998011 0.23027919 0
8.373395 29.136763 5.8590379 0
2.5481308 9.0153742 -0.18451083 0
8.4932747 29.857912 4.5163193 0
1.8364435 6.6044459 -0.36973557 0
8.8224621 31.294346 2.4256301 0
8.1412239 29.040653 6.5597849 0
6.8924513 24.764111 9.5021582 0
1.1391491 4.2387099 -0.54015136 0
2.1155801 7.7783775 -0.30439702 0
8.4755249 30.859564 3.8877776 0
1.3717417 5.1520891 -0.4738026 0
3.7852678 14.018894 0.23057644 0
6.9950004 25.898571 5.217885 0
2.4034524 9.0526304 -0.18443012 0
8.6935892 32.509842 3.2865338 0
1.3369766 5.1513543 -0.46875319 0
2.8106599 10.738855 -0.011120915 0
7.8319259 29.826952 4.4875464 0
1.4832103 5.8034096 -0.42633024 0
2.7369823 10.662616 -0.010735184 0
7.9484401 30.835905 3.8687551 0
1.2871494 5.1603055 -0.46872368 0
1.9513614 7.7902327 -0.29920009 0
1.9315395 7.7848611 -0.29915169 0
2.613796 10.5705 -0.0052121282 0
5.495224 22.23875 0.72843206 0
7.358192 29.919161 4.483027 0
5.9015932 24.212452 5.4657321 0
1.217343 5.1788073 -0.46870151 0
5.8720598 24.592037 5.5394244 0
1.0742965 4.6764841 -0.50668216 0
2.3829358 10.336597 0.00098386407 0
1.498065 6.6327124 -0.36436245 0
2.0440702 9.165863 -0.1842944 0
2.2304029 10.20401 0.0066933036 0
2.180886 10.188128 0.0068286657 0
-0.9046101 4.4169197 -0.56333268 0
-0.91459888 4.4217429 -0.56333721 0
-1.3780236 6.1114759 -0.45853445 0
-2.270057 9.8823967 -0.21527028 0
-1.259894 5.4074359 -0.50128543 0
-1.4526947 6.1203465 -0.45847306 0
-1.063874 4.439147 -0.57323456 0
-2.00157 8.279665 -0.33013615 0
-1.3193842 5.396471 -0.50117731 0
-1.0988384 4.4535556 -0.57824564 0
-2.4486039 9.8450117 -0.21489558 0
-1.3591437 5.3958497 -0.50112987 0
-1.1180735 4.4031844 -0.56805623 0
-2.5233138 9.8540411 -0.21482569 0
-1.1431061 4.4177694 -0.57307899 0
-1.602036 6.1380806 -0.46835062 0
-3.1304998 11.902897 -0.036013991 0
-1.2876248 4.8461261 -0.53935826 0
-2.2152619 8.2717171 -0.33482584 0
-3.2514601 12.031436 -0.041286677 0
-3.7084692 13.602377 0.24396089 0
-1.2125785 4.4115605 -0.57798409 0
-1.3472618 4.8451567 -0.54429114 0
-1.9607121 6.9939489 -0.40581021 0
-3.8844512 13.75532 0.24368349 0
-1.2473186 4.4059968 -0.57793224 0
-1.5379215 5.3830485 -0.50588298 0
-2.3794599 8.2795067 -0.33964112 0
-5.2672725 18.196758 0.67039061 0
-1.4018408 4.8392639 -0.54421103 0
-2.4191229 8.2689791 -0.33955655 0
-12.250546 41.656464 5.2197561 0
-13.179683 44.585136 11.140979 0
-4.0885391 13.767904 0.24392685 0
-1.3068033 4.394989 -0.57783401 0
-1.8251315 6.0897493 -0.46792266 0
-3.7383006 12.385632 -0.051826596 0
-12.932813 42.606323 7.4575257 0
-2.119401 6.9617014 -0.40550533 0
-5.7619147 18.771353 0.68411845 0
-1.6521007 5.3712826 -0.51071572 0
-3.8638344 12.479177 -0.051979184 0
-1.3666277 4.4090285 -0.58282089 0
-2.1793759 6.9858861 -0.41051486 0
-4.3740058 13.92462 0.24378708 0
-1.5159503 4.8224301 -0.54903448 0
-2.2141254 6.9804115 -0.41045621 0
-13.472407 42.250923 4.2895241 0
-1.9392121 6.0680881 -0.46771869 0
-10.820214 33.61821 12.080407 0
-1.400696 4.3533816 -0.57760203 0
-2.2585618 6.9547839 -0.41031751 0
-10.472352 32.085751 13.330199 0
-1.5755332 4.8165054 -0.54895389 0
-4.1850438 12.710462 -0.062331498 0
-13.033338 39.427139 7.9735622 0
-2.0137761 6.0670114 -0.4726297 0
-10.855689 32.512321 13.534288 0
-1.6102616 4.8109646 -0.54890001 0
-3.3344707 9.8937798 -0.22888926 0
-1.4653486 4.3573251 -0.58255064 0
-2.8071179 8.2789173 -0.34409901 0
-14.602648 42.796322 6.5043283 0
-2.3881941 6.9830441 -0.41525719 0
-6.4374728 18.683966 0.68536627 0
-1.845751 5.3533669 -0.51544487 0
-4.4706807 12.877218 -0.067520887 0
-1.6647398 4.7950873 -0.55379164 0
-11.214396 32.095425 12.526224 0
-1.679721 4.7998734 -0.55379248 0
-3.4837782 9.9019709 -0.22872177 0
-6.8327703 19.269844 0.70391893 0
-1.6995251 4.7945518 -0.55375242 0
-2.9562752 8.2720194 -0.34889415 0
-13.22137 36.843502 5.6678104 0
-2.5073547 6.9664326 -0.42006007 0
-15.175756 41.915867 3.2731724 0
-14.213068 39.164696 11.051238 0
-5.2401433 14.364955 0.2434631 0
-1.7441343 4.7838597 -0.55367017 0
-3.0408795 8.2759609 -0.34880039 0
-13.959819 37.816498 5.8305459 0
-2.5718596 6.9555655 -0.41994408 0
-15.557197 41.767189 3.2742419 0
-14.621341 39.132538 10.046926 0
-3.7177007 9.9091711 -0.23344514 0
-1.6241398 4.3347721 -0.58732021 0
-3.1254826 8.2798948 -0.35370651 0
-13.643455 35.981972 6.4914064 0
-2.2867079 6.0231447 -0.47716996 0
-15.697031 41.029022 4.2570004 0
-14.3405 37.390427 11.632534 0
-13.848119 35.992214 5.5916486 0
-3.8223338 9.9229288 -0.23835477 0
-13.92758 35.981449 5.5918102 0
-3.2151375 8.2887993 -0.35362616 0
-14.047659 36.030308 5.6068087 0
-3.2349207 8.278553 -0.35356942 0
-14.188518 36.153969 5.6265883 0
-2.7309911 6.9534788 -0.42474779 0
-16.779051 42.418743 4.4137959 0
-2.7560005 6.96316 -0.42975304 0
-16.005463 40.196121 4.2003074 0
-2.4012127 6.0315967 -0.48207048 0
-16.982786 42.348614 3.3493171 0
-2.1235685 5.3042636 -0.5249778 0
-14.044312 34.782352 12.826087 0
-16.441319 40.551365 7.3447561 0
-2.1483099 5.2939057 -0.52491832 0
-17.244858 42.119797 1.220445 0
-1.9220916 4.7010803 -0.55321789 0
-4.0809112 9.9099302 -0.23798755 0
-21.026606 50.817429 6.551116 0
-2.1880779 5.293344 -0.5248735 0
-5.4021173 12.956885 -0.07654652 0
-16.922693 40.431862 7.355854 0
-2.5203707 6.0149717 -0.48688307 0
-5.4615254 12.931244 -0.076384366 0
-16.936861 39.954704 8.3324013 0
-2.9497809 6.9456701 -0.43447062 0
-16.330267 38.210331 3.0775566 0
-17.135342 39.989189 10.457601 0
-14.309124 33.279369 14.29661 0
-1.8423458 4.2913246 -0.59696877 0
-2.6049936 6.0188584 -0.49180534 0
-4.3198819 9.922205 -0.2427291 0
-17.295713 39.497234 5.1995344 0
-2.3020766 5.261713 -0.52965248 0
-18.266237 41.375698 1.2194278 0
-16.235338 36.685528 7.7275834 0
-2.6594465 5.9981217 -0.49167803 0
-5.8775182 13.171858 -0.086656362 0
-18.240633 40.658581 5.3668928 0
-2.3515656 5.241015 -0.52953601 0
-6.9035192 15.27749 0.24258381 0
-1.9215661 4.2650895 -0.59681046 0
-2.1258481 4.6930847 -0.5629884 0
-3.1583169 6.9130406 -0.43912748 0
-6.0821753 13.21974 -0.086561054 0
-20.147278 43.584522 6.8995719 0
-3.1930227 6.9026108 -0.43905613 0
-17.51763 37.632534 4.0461626 0
-16.972769 36.323803 7.7248173 0
-4.6485052 9.9385405 -0.25238302 0
-19.15686 40.713535 6.4829664 0
-3.2426317 6.891994 -0.43896493 0
-14.654058 30.969719 15.40994 0
-17.83812 37.52916 8.996912 0
-7.4503832 15.632015 0.2420928 0
-17.090128 35.732689 7.6319799 0
-3.9458649 8.235074 -0.37258247 0
-18.200943 37.774326 5.0666175 0
-2.8627975 5.9504399 -0.49630591 0
-18.265223 37.663048 3.1020582 0
-18.179813 37.376118 8.9978886 0
-6.450521 13.220966 -0.091108859 0
-18.223175 37.214996 6.9785638 0
-2.9124928 5.9448166 -0.49623814 0
-7.8418374 15.893159 0.24171089 0
-17.595646 35.538227 7.6433063 0
-4.9271898 9.9355173 -0.25704703 0
-2.0748732 4.1977162 -0.59645832 0
-19.589251 39.19849 12.718648 0
-19.19792 38.290546 5.1762042 0
-19.8776 39.537891 11.737874 0
-19.348446 38.346287 4.1811972 0
-2.9868693 5.9238529 -0.50109518 0
-19.743814 38.889744 3.2248716 0
-18.689646 36.706619 8.9208155 0
-6.769702 13.272765 -0.095887363 0
-2.1549516 4.2366252 -0.61151135 0
-20.279608 39.424435 11.763773 0
-8.4908047 16.451855 0.24065448 0
-2.3837104 4.6293926 -0.57254612 0
-19.524059 37.608032 15.568948 0
-20.662277 39.653767 7.5135512 0
-21.499342 41.122696 13.454662 0
-8.869338 16.927029 1.569556 0
-19.852224 37.703773 8.1989641 0
-20.561838 38.915127 12.775868 0
-15.001045 28.319237 14.434299 0
-2.4433155 4.6235552 -0.57747221 0
-5.3056712 9.9515162 -0.26666507 0
-23.548029 43.913555 4.8079472 0
-2.7533054 5.1455536 -0.53883672 0
-5.3654561 9.9559002 -0.26661167 0
-2.2437115 4.1752687 -0.60624349 0
-3.1854258 5.886364 -0.50577545 0
-24.761494 45.39933 3.7745035 0
-19.844631 36.304726 9.9736576 0
-7.3284545 13.367295 -0.10554251 0
-2.5127017 4.6025968 -0.57734478 0
-5.4798794 9.9497271 -0.26646462 0
-2.2782598 4.154736 -0.60614955 0
-3.7691672 6.8157134 -0.45316139 0
-9.6260519 17.281109 0.23927973 0
-18.991022 33.999084 8.4552679 0
-4.5620561 8.1581898 -0.38665321 0
-20.876387 37.142498 7.1722202 0
-19.037653 33.733727 8.4112139 0
-18.37352 32.427181 10.864768 0
-25.857483 45.430382 3.8157842 0
-19.185911 33.637516 8.4117184 0
-3.873306 6.7844992 -0.45795676 0
-26.050085 45.29393 3.8164799 0
-2.9167926 5.0883956 -0.54350626 0
-7.7928896 13.482879 -0.11038569 0
-19.352697 33.388535 7.4527392 0
-4.7160387 8.1315289 -0.39140466 0
-20.860289 35.788052 6.9867067 0
-19.347769 33.07658 10.208798 0
-23.730816 40.443924 4.5497484 0
-19.945658 33.903976 9.4967737 0
-5.8631649 9.9458475 -0.27603164 0
-19.954161 33.708561 7.5624051 0
-19.442888 32.728466 11.09007 0
-23.38777 39.232384 4.4383354 0
-2.6858294 4.5201883 -0.58194137 0
-4.8602805 8.1200066 -0.39622101 0
-23.139324 38.401932 3.315767 0
-20.331686 33.658195 8.5380344 0
-6.0124569 9.9393663 -0.28085169 0
-2.4716325 4.1019888 -0.61583149 0
-4.0866919 6.7320805 -0.46257928 0
-11.390005 18.619946 0.2369433 0
-2.7402961 4.4994497 -0.58183134 0
-4.9695358 8.0988684 -0.39604053 0
-24.305252 39.358086 5.5790367 0
-20.026674 32.361156 10.141971 0
-11.594778 18.668161 0.23701832 0
-22.548376 36.215004 9.2422533 0
-4.1860805 6.7159839 -0.46743622 0
-11.78535 18.776474 0.23687695 0
-22.949972 36.47678 9.3368587 0
-18.516003 29.365705 11.910061 0
-24.993851 39.457649 5.629518 0
-23.25016 36.58942 9.3918419 0
-4.2453747 6.6803155 -0.46726683 0
-12.308591 19.216789 0.23603031 0
-2.8443565 4.4630666 -0.5866363 0
-8.8214531 13.70844 -0.12498268 0
-2.8440979 4.4430394 -0.5815748 0
-8.8715134 13.732983 -0.13000116 0
-23.353264 36.038826 9.303771 0
-8.9314775 13.747446 -0.12998804 0
-2.8790586 4.4526148 -0.58657634 0
-18.68148 28.604315 11.727733 0
-23.333824 35.61364 7.1801996 0
-23.55398 35.851128 12.469646 0
-18.925875 28.729982 14.547628 0
-3.2586501 4.9640541 -0.55282533 0
-5.3224173 8.0452709 -0.40552488 0
-22.821091 34.297913 5.0038815 0
-3.7853813 5.6991735 -0.52463496 0
-13.373579 19.977468 0.23474655 0
-2.6746233 4.0191469 -0.62542713 0
-4.4539728 6.6380711 -0.47194269 0
-13.670305 20.21487 0.2343002 0
-2.9580083 4.3965478 -0.58634639 0
-9.4616518 13.93274 -0.14002338 0
-2.9628029 4.3814626 -0.58629763 0
-5.4665732 8.0238361 -0.41032037 0
-23.554264 34.367279 5.0544744 0
-23.03422 33.52779 10.831595 0
-24.475174 35.508965 3.2067776 0
-3.3725274 4.9126511 -0.55757797 0
-9.7016726 14.010643 -0.14502314 0
-2.7590487 4.0030475 -0.63031924 0
-5.545814 7.9880548 -0.41013291 0
-24.235514 34.681946 5.1342077 0
-4.6029062 6.6014948 -0.47669545 0
-24.867346 35.38615 3.2176054 0
-27.290659 38.743008 10.244406 0
-9.9365969 14.078614 -0.14999762 0
-25.242386 35.651958 8.4121275 0
-7.0635619 9.9644413 -0.30487165 0
-23.918301 33.610497 6.9673395 0
-5.675179 7.9767981 -0.41497985 0
-25.730583 35.924236 3.2818141 0
-2.8182015 3.9572065 -0.6301415 0
-4.0131092 5.5915751 -0.52911484 0
-20.455641 28.323435 14.775618 0
-3.5013883 4.8661013 -0.56233537 0
-10.276103 14.140736 -0.15485498 0
-3.1415987 4.3492241 -0.60106683 0
-20.387449 27.926477 11.871786 0
-3.1564867 4.3440499 -0.60104203 0
-20.487148 27.930758 11.896878 0
-2.8626194 3.9265914 -0.63002098 0
-20.591805 27.929983 11.916985 0
-2.8775597 3.9264009 -0.63501072 0
-20.691507 27.934256 11.937076 0
-2.8874059 3.9162834 -0.62997568 0
-5.8938379 7.9346995 -0.4246532 0
-25.737701 34.461155 5.2165341 0
-27.389748 36.576729 11.006488 0
-21.121929 28.133556 12.991901 0
-28.283573 37.561672 10.174261 0
-10.755735 14.25672 -0.1647445 0
-28.635834 37.818089 7.9738803 0
-4.1817245 5.5347257 -0.53380704 0
-17.842999 23.409389 0.22846994 0
-3.2453516 4.2829056 -0.60079873 0
-21.050301 27.501772 11.893824 0
-2.9567084 3.8853579 -0.63483882 0
-3.2701743 4.2776074 -0.60076535 0
-6.1027913 7.9127536 -0.42940256 0
-18.632013 23.982851 0.2274497 0
-28.906698 37.142628 10.186236 0
-23.13308 29.666389 12.899093 0
-21.947447 28.052778 15.063021 0
-3.7243576 4.7734971 -0.57189584 0
-5.0693426 6.4567404 -0.49086204 0
-4.3154693 5.47328 -0.53852153 0
-5.1040268 6.4413981 -0.49078795 0
-23.286898 29.165495 12.800818 0
-20.2764 25.264252 0.22504888 0
-3.3842781 4.2412372 -0.61058331 0
-4.3699298 5.4476967 -0.53840244 0
-5.1783981 6.4106612 -0.4956384 0
-5.1982636 6.4054704 -0.49560729 0
-6.4312754 7.8847561 -0.44403979 0
-8.1544218 9.9499216 -0.33382615 0
-12.025165 14.576392 -0.18954608 0
-22.202627 26.77845 0.22218099 0
-3.1248839 3.793179 -0.63946939 0
-3.892817 4.701591 -0.5765667 0
-4.5039458 5.4063125 -0.54318368 0
-4.5137362 5.3912039 -0.54313314 0
-3.9324315 4.6811552 -0.57648182 0
-3.947319 4.6759834 -0.58145726 0
-3.9571619 4.6658683 -0.58142161 0
-3.5376272 4.1543894 -0.61523592 0
-3.5525632 4.1542258 -0.61522579 0
-3.2290876 3.7619021 -0.64931893 0
-25.46508 29.192202 0.21776414 0
-13.015288 14.863593 -0.20953989 0
-8.7323999 9.9401522 -0.35331109 0
-6.8686695 7.7909245 -0.45840761 0
-5.5605154 6.282023 -0.5099684 0
-4.7271581 5.3240452 -0.55278707 0
-4.1008339 4.5993009 -0.58613741 0
-3.6614099 4.0929437 -0.61998618 0
-3.6763453 4.0927825 -0.61997628 0
-3.3227916 3.6856906 -0.64905322 0
-29.713541 32.378387 0.2118338 0
-13.950751 15.156403 -0.22462186 0
-9.1658211 9.9217024 -0.36790809 0
-7.1670294 7.733407 -0.46801099 0
-7.2019229 7.7331181 -0.46798524 0
-5.7836852 6.1899877 -0.51454234 0
-4.9104652 5.2322245 -0.56240439 0
-4.2593694 4.5226197 -0.59082341 0
-3.795018 4.0164151 -0.62469661 0
-3.4366426 3.624321 -0.65382445 0
-14.825873 15.394849 -0.24461201 0
-7.4206553 7.6813207 -0.4776763 0
-5.0245929 5.1911283 -0.56721413 0
-3.8744342 3.9905531 -0.62958145 0
-15.316144 15.541207 -0.25465617 0
-7.5599213 7.6551995 -0.48250034 0
-5.108964 5.1603298 -0.57207549 0
-3.9237916 3.9499941 -0.62944484 0
-15.806351 15.682628 -0.26468572 0
-7.7091875 7.6290126 -0.48732236 0
-5.1781702 5.1096783 -0.57189381 0
-3.9731536 3.9094276 -0.63430977 0
-16.336668 15.838771 -0.27473816 0
-7.8534184 7.5978842 -0.49213579 0
-5.2625494 5.0788989 -0.57675827 0
-4.0376444 3.8837442 -0.63920796 0
-17.093683 16.203104 -0.2952266 0
-8.0026522 7.5667315 -0.49694929 0
-5.3469305 5.0481291 -0.58162391 0
-4.0870137 3.8432026 -0.63907564 0
-17.623703 16.32939 -0.30519959 0
-8.1468487 7.5306258 -0.5067538 0
-5.4211531 4.9974632 -0.58144605 0
-4.6754079 4.2983928 -0.6099782 0
-3.7382817 3.4257622 -0.67315328 0
-10.899993 9.8388262 -0.42141166 0
-6.5732226 5.9182467 -0.54827785 0
-4.7448015 4.2627196 -0.61484683 0
-3.7877665 3.3952084 -0.67305076 0
-11.13931 9.8321438 -0.42622432 0
-6.6825275 5.8823619 -0.55311143 0
-4.8192024 4.2270122 -0.61971307 0
-11.333716 9.8207808 -0.4360601 0
-5.6593399 4.895359 -0.59603453 0
-3.8668966 3.3393195 -0.67787075 0
-8.6738615 7.3817377 -0.5260011 0
-4.9083219 4.1711588 -0.62451887 0
-11.662539 9.7835455 -0.44573715 0
-6.9007893 5.7756362 -0.56269169 0
-4.389091 3.6650653 -0.65846288 0
-48.100342 39.529415 1.6503291 0
-8.9175901 7.3200006 -0.53567898 0
-5.8476233 4.7837443 -0.60563636 0
-3.9906695 3.2629685 -0.6876229 0
-7.0796328 5.7092538 -0.57241285 0
-4.4832063 3.6091287 -0.66327691 0
-9.1515055 7.2683549 -0.54540062 0
-5.1064463 4.0493259 -0.63410556 0
-12.450308 9.738287 -0.47011396 0
-7.2285652 5.6431384 -0.57715607 0
-4.5573463 3.548384 -0.66809201 0
-12.654642 9.71698 -0.47493044 0
-7.3078995 5.5975509 -0.58199477 0
-5.2104549 3.9833899 -0.63888919 0
-47.019588 35.351212 1.5813918 0
-9.5244417 7.1508408 -0.5598737 0
-6.1549959 4.6112261 -0.62003398 0
-4.6513114 3.4774587 -0.67287588 0
-47.538521 34.935802 4.3379045 0
-7.5115786 5.5160694 -0.5916779 0
-5.304152 3.8825369 -0.64359677 0
-13.36746 9.6424713 -0.49931809 0
-7.6059647 5.4753947 -0.59652805 0
-4.7303457 3.406697 -0.67267156 0
-9.9073372 7.0233555 -0.57433498 0
-5.428472 3.8464909 -0.65345442 0
-4.277247 3.0199096 -0.70192182 0
-13.906558 9.6540394 -0.52404857 0
-6.4227567 4.4541392 -0.63451815 0
-4.3218632 2.9944673 -0.70684648 0
-10.191053 6.9515362 -0.58900499 0
-6.4871974 4.4136491 -0.63939023 0
-4.8588843 3.2954857 -0.68235874 0
-14.440505 9.6457567 -0.54374003 0
-6.5566397 4.3731284 -0.64426208 0
-4.9034147 3.2600846 -0.68225992 0
-14.709889 9.6291332 -0.55355942 0
-6.626123 4.337625 -0.6441462 0
-4.430541 2.893369 -0.71157765 0
-14.964205 9.602643 -0.56336296 0
-8.1673536 5.231565 -0.62565875 0
-5.6857104 3.634341 -0.66784656 0
-15.268732 9.6058187 -0.57321846 0
-6.7800632 4.2615075 -0.65390265 0
-4.5096865 2.8276019 -0.71640515 0
-10.942789 6.7569242 -0.62316036 0
-6.8545232 4.2209673 -0.66377819 0
-5.0765762 3.1185262 -0.69687629 0
-15.84751 9.5724649 -0.59285617 0
-8.4404221 5.0848222 -0.64019132 0
-5.1311603 3.0880647 -0.70179057 0
-16.13183 9.5458546 -0.60765707 0
-7.0084839 4.1448932 -0.67354226 0
-4.623446 2.731509 -0.72616017 0
-11.400692 6.6142678 -0.64761519 0
-8.6442375 4.9985399 -0.65490615 0
-5.225265 3.017272 -0.70660496 0
-44.781635 25.357058 -0.9533962 0
-11.594818 6.5531754 -0.65738845 0
-11.629623 6.5379915 -0.65733826 0
-8.798316 4.927598 -0.66468263 0
-8.8281736 4.9174175 -0.66464806 0
-6.077446 3.3813198 -0.69713867 0
-5.3193488 2.9414864 -0.71641314 0
-4.7470484 2.6153607 -0.73587918 0
-4.76197 2.6102278 -0.74086452 0
-4.7768903 2.6051061 -0.74084997 0
-49.574768 26.499773 4.1710505 0
-54.56596 29.03306 7.4521389 0
-54.649899 28.928009 7.4524369 0
-4.8164716 2.5697482 -0.74576652 0
-5.4084806 2.8707631 -0.72123754 0
-5.4032617 2.8457854 -0.72118676 0
-54.739506 28.334454 7.4339175 0
-50.142776 25.794285 4.1830206 0
-46.30426 23.645056 -0.95850205 0
-18.567739 9.4473372 -0.70138061 0
-9.2705421 4.704843 -0.68901062 0
-6.3403859 3.2094333 -0.71668994 0
-7.5492878 3.7963707 -0.70758176 0
-6.3249803 3.1645422 -0.71160007 0
-5.5221825 2.754848 -0.73096716 0
-19.236599 9.4038057 -0.72602069 0
-7.6285276 3.7258945 -0.71240711 0
-4.9647598 2.4184408 -0.75542545 0
-9.53899 4.5733457 -0.70863438 0
-5.6113915 2.6841726 -0.73580194 0
-12.89867 6.066391 -0.72078872 0
-7.752532 3.6351516 -0.72217965 0
-5.6459131 2.6388967 -0.74070334 0
-13.072906 6.000526 -0.73058689 0
-7.8319774 3.5846822 -0.72705245 0
-5.6804371 2.5936337 -0.74060607 0
-56.201046 25.132341 4.5520296 0
-13.296997 5.9244337 -0.74034834 0
-6.617528 2.9425662 -0.73607016 0
-55.273872 24.094782 1.649027 0
-21.759401 9.4353056 -0.83518708 0
-7.9907002 3.4637828 -0.73676229 0
-5.1476827 2.2268958 -0.77001929 0
-55.839218 23.593935 1.6553572 0
-13.700259 5.767519 -0.76488888 0
-8.0749788 3.3933239 -0.74159908 0
-6.7412438 2.8167775 -0.74579418 0
-5.8587809 2.4373291 -0.76026714 0
-5.2269859 2.1612697 -0.77988267 0
-22.972149 9.2894993 -0.88447309 0
-10.259389 4.1397047 -0.75251913 0
-6.8204875 2.7412887 -0.75063169 0
-5.2714729 2.1109109 -0.78478336 0
-23.415722 9.157649 -0.89905536 0
-10.448668 4.0737138 -0.7673378 0
-6.8748493 2.675961 -0.75549686 0
-5.3059335 2.0556192 -0.78967881 0
-23.82419 9.0060616 -0.91361487 0
-10.597896 3.9980009 -0.77715003 0
-6.9492192 2.6105163 -0.76035953 0
-5.355432 2.0052395 -0.79458177 0
-14.691186 5.3780775 -0.81880927 0
-8.4268837 3.0715072 -0.76589382 0
-5.4000344 1.9649075 -0.7995044 0
-24.736746 8.7772303 -0.95288062 0
-10.826313 3.8270113 -0.79176438 0
-6.1060457 2.1556263 -0.77970982 0
-25.165615 8.6654501 -0.96753693 0
-10.935654 3.7565427 -0.79660499 0
-6.1456156 2.110363 -0.78462517 0
-25.549435 8.5439787 -0.98218989 0
-11.039973 3.6811047 -0.80643988 0
-6.1751285 2.0551724 -0.78452575 0
-60.193554 19.534674 4.6853456 0
-26.248299 8.4458771 -1.0118123 0
-8.7394848 2.8099918 -0.79035103 0
-6.2245793 1.9948549 -0.78941643 0
-5.5582027 1.7687305 -0.81415296 0
-26.856939 8.3083906 -1.0363895 0
-11.34331 3.4948144 -0.8260318 0
-7.270802 2.2337372 -0.78463435 0
-6.2788835 1.9145126 -0.79427481 0
-59.931393 17.7824 1.7137313 0
-8.9330807 2.6490927 -0.81003225 0
-5.622273 1.6632586 -0.81897652 0
-8.9926548 2.598825 -0.81493497 0
-60.696251 17.116636 1.7302077 0
-7.3945603 2.0881023 -0.79437208 0
-11.691076 3.2285094 -0.85049021 0
-5.6664276 1.5629225 -0.82381606 0
-7.4589381 2.0127728 -0.80423987 0
-16.967928 4.4688339 -0.94657218 0
-6.4470344 1.6985031 -0.80890906 0
-9.2658587 2.382632 -0.83452618 0
-65.313721 16.379375 4.9726958 0
-17.241522 4.2880011 -0.96120095 0
-7.5828676 1.8821681 -0.81401539 0
-12.158787 2.9466937 -0.88492537 0
-5.7850742 1.4021146 -0.83856523 0
-9.4546194 2.2268476 -0.85424459 0
-17.619656 4.041883 -0.98570299 0
-7.6819124 1.7617195 -0.82381487 0
-12.442462 2.7756443 -0.90958869 0
-6.6101871 1.4675926 -0.82853985 0
-17.973354 3.870729 -1.0053403 0
-6.6248722 1.4275249 -0.82848036 0
-9.6630859 2.0261009 -0.87389076 0
-18.267218 3.7148163 -1.020023 0
-6.6843381 1.3572105 -0.8383702 0
-12.820575 2.519376 -0.93910694 0
-6.704031 1.3171203 -0.83831203 0
-9.8069248 1.8656404 -0.88362205 0
-18.760401 3.4582882 -1.0545133 0
-6.7585077 1.2468511 -0.84320724 0
-9.8912153 1.7653906 -0.89346039 0
-19.049232 3.2874904 -1.0691905 0
-6.7929688 1.1716924 -0.8481009 0
-9.965517 1.6652102 -0.89830458 0
-19.363087 3.116591 -1.08887 0
-6.842463 1.1014607 -0.85300243 0
-22.459499 3.4684024 0.2811408 0
-13.402294 2.0427964 -0.98328912 0
-6.8720441 1.0413293 -0.85792136 0
-10.16929 1.4845366 -0.91802025 0
-66.213081 9.2661314 4.9550862 0
-10.223864 1.4193915 -0.92292309 0
-20.365456 2.7133141 -1.153096 0
-6.9512486 0.92597467 -0.86776817 0
-13.655317 1.7324294 -1.0028107 0
-6.9609451 0.88095099 -0.86771357 0
-20.919083 2.4915135 -1.1926852 0
-8.2913971 0.98438799 -0.88765001 0
-68.27829 7.6992888 8.3028326 0
-8.3260469 0.92928219 -0.89257753 0
-13.918753 1.4768968 -1.0224264 0
-6.2096086 0.65463704 -0.89255548 0
-10.576552 1.0534252 -0.95739818 0
-67.271011 6.3594885 8.1745996 0
-8.4151402 0.78403401 -0.90239358 0
-8.4349251 0.74898273 -0.90735137 0
-8.4647093 0.7138924 -0.90730774 0
-8.4844732 0.6738432 -0.91225898 0
-10.795071 0.80291909 -0.98206592 0
-64.712738 4.392962 -2.738112 0
-6.2982106 0.43419424 -0.907318 0
-7.1882982 0.46006596 -0.90221834 0
-10.914133 0.63772798 -0.99186051 0
-59.795731 3.1567745 1.677716 0
-6.3326073 0.33403388 -0.91221738 0
-7.2476492 0.34986541 -0.90710235 0
-8.6877365 0.37330472 -0.93691218 0
-64.706459 2.403353 4.8144503 0
-6.3720202 0.23385687 -0.91712117 0
-6.3868728 0.20878643 -0.92209899 0
-6.4017029 0.17872384 -0.92207026 0
-14.967413 0.32045385 -1.1108958 0
-7.3365297 0.14959243 -0.92190266 0
-59.019184 0.84946221 4.4154248 0
-8.8463602 0.11794678 -0.96164238 0
-15.121402 0.11537676 -1.1256573 0
-6.4359779 0.048585381 -0.92695844 0
-11.275875 0.017472727 -1.036168 0
-6.4607358 0.003478789 -0.93191862 0
-11.325483 -0.062569596 -1.0410841 0
-56.882736 -0.59501898 4.266715 0
-7.4352865 -0.085667811 -0.93669093 0
-9.0200176 -0.14741674 -0.98138225 0
-15.554265 -0.3401401 -1.1651433 0
-56.858898 -1.4959065 4.2676697 0
-9.0795097 -0.25251463 -0.99128616 0
-15.693459 -0.5201894 -1.1799556 0
-6.5295701 -0.22178531 -0.94674361 0
-7.5142684 -0.2908431 -0.95152497 0
-9.1788082 -0.40270549 -1.0061523 0
-9.1936235 -0.44270277 -1.0111212 0
-58.992165 -3.1624575 4.4246793 0
-7.5886798 -0.41605702 -0.96642518 0
-11.747559 -0.7028873 -1.0904751 0
-11.782304 -0.76290083 -1.0954216 0
-16.375847 -1.1411916 -1.2443117 0
-7.6481104 -0.54119217 -0.97633433 0
-9.307477 -0.70274925 -1.0259184 0
-11.891496 -0.95788777 -1.1102605 0
-11.921254 -1.0178759 -1.1152112 0
-18.138943 -1.6371318 -1.4136118 0
-18.493492 -1.7582542 -1.4484543 0
-18.868046 -1.8794357 -1.4832962 0
-19.302567 -2.0108328 -1.5231198 0
-19.752075 -2.1472723 -1.5679381 0
-12.069917 -1.3626487 -1.1349572 0
-7.7965684 -0.9064436 -1.0061045 0
-12.134385 -1.5075514 -1.1448587 0
-7.8411775 -1.0065255 -1.016044 0
-12.208851 -1.6574838 -1.1547583 0
-7.880816 -1.101578 -1.0209937 0
-12.273334 -1.8073701 -1.1646651 0
-7.9104657 -1.1965955 -1.0309486 0
-12.342801 -1.967266 -1.1745657 0
-7.9301262 -1.2915686 -1.0359082 0
-12.432303 -2.1222296 -1.1894745 0
-7.9647818 -1.3915964 -1.0458637 0
-12.526789 -2.2871976 -1.2043781 0
-7.9944477 -1.4915978 -1.0508233 0
-14.220145 -2.7562454 -0.048770934 0
-7.9992061 -1.5665342 -1.0558013 0
-6.8448911 -1.3576615 -1.0311748 0
-14.044885 -2.8553047 -0.048774868 0
-8.0339384 -1.6515678 -1.0607674 0
-13.944695 -2.9297082 -0.043775141 0
-9.7326012 -2.0720689 -1.1151785 0
-9.7424736 -2.1170173 -1.1151657 0
-9.7573318 -2.1669862 -1.1201477 0
-9.7621927 -2.2169175 -1.1201317 0
-9.7720556 -2.2668686 -1.1251162 0
-8.0681896 -1.9064076 -1.0757046 0
-9.79179 -2.3667657 -1.1300867 0
-8.0829554 -1.9913743 -1.085683 0
-13.208871 -3.3571315 -1.308838 0
-8.0877075 -2.0862811 -1.0906721 0
-13.333408 -3.5521049 -1.3287548 0
-8.10744 -2.191232 -1.0956532 0
-13.417996 -3.7369437 -1.3436921 0
-8.0972004 -2.2910938 -1.1006457 0
-13.677451 -3.9772899 -1.3785676 0
-8.1219568 -2.3960552 -1.1056339 0
