# .PCD v0.7 - Point Cloud Data file format
VERSION 0.7
FIELDS x y z intensity
SIZE 4 4 4 4
TYPE F F F F
COUNT 1 1 1 1
WIDTH 1400
HEIGHT 1
VIEWPOINT 0 0 0 1 0 0 0
POINTS 1400
DATA ascii
-3.1089315 -4.8042674 -0.71926177 0
-4.0043564 -6.2897739 -0.65501809 0
-6.538465 -10.470702 -0.67257273 0
-3.0676851 -4.8685174 -0.72381723 0
-3.9237559 -6.3279824 -0.6553309 0
-6.3545761 -10.44121 -0.66487575 0
-2.9783299 -4.846417 -0.71504545 0
-3.8384748 -6.3510137 -0.6509105 0
-6.1756487 -10.411777 -0.65213275 0
-2.9179573 -4.8700795 -0.71036267 0
-3.753314 -6.3690572 -0.64656591 0
-5.9921031 -10.367333 -0.64464605 0
-2.8671906 -4.9141254 -0.71529937 0
-3.6776083 -6.4124074 -0.6467638 0
-5.8471894 -10.383883 -0.64094257 0
-2.8163943 -4.9580994 -0.71523786 0
-3.5923719 -6.435545 -0.64733899 0
-5.7022805 -10.400451 -0.63723683 0
-2.7512636 -4.9716716 -0.71074259 0
-3.5119867 -6.463728 -0.64280021 0
-13.331218 -25.210186 -1.2443404 0
-3.4618468 -6.477644 -0.64313555 0
-5.448267 -10.389453 -0.63001752 0
-2.6604316 -5.0249081 -0.71597457 0
-3.3815827 -6.5008445 -0.63867152 0
-5.2843614 -10.360552 -0.62211812 0
-2.9155767 -5.6805716 -0.67952764 0
-4.6459284 -9.225791 0.69116235 0
-5.1552181 -10.337459 -0.61377537 0
-3.261379 -6.5282679 -0.63954771 0
-2.53476 -5.0722799 -0.71163821 0
-5.0307646 -10.329563 -0.61016595 0
-2.8049846 -5.7232084 -0.67510629 0
-4.4637747 -9.2781401 0.93498576 0
-4.4498491 -9.3115196 0.69026715 0
-4.4247308 -9.3209724 0.69014454 0
-4.3901701 -9.3110561 -0.035433561 0
-3.6824329 -7.8329573 -0.6026901 0
-4.3853106 -9.4734783 -0.53337193 0
-4.673955 -10.231226 -0.59521949 0
-4.6190391 -10.234927 -0.59074271 0
-4.559269 -10.233596 -0.59137189 0
-4.5045772 -10.227306 -0.58703995 0
-4.4449196 -10.220982 -0.58774054 0
-4.3898888 -10.229692 -0.58318365 0
-4.3352299 -10.223485 -0.58384764 0
-2.218116 -5.1959286 -0.70827675 0
-3.3117278 -7.9248662 -0.59531438 0
-2.1733859 -5.1900301 -0.70882022 0
-2.413563 -5.8501835 -0.67247748 0
-2.3833473 -5.8645759 -0.67258108 0
-2.358243 -5.8740821 -0.67272365 0
-2.3282518 -5.8784804 -0.67297399 0
-2.2982612 -5.8828802 -0.67322433 0
-2.2729349 -5.9023867 -0.67321932 0
-2.2430563 -5.9017906 -0.6735425 0
-2.2178426 -5.9163017 -0.67361081 0
-2.1926296 -5.9308133 -0.67367911 0
-2.1485786 -5.8897562 -0.66469073 0
-2.1326201 -5.9395547 -0.66917861 0
-2.1027424 -5.9389653 -0.66949975 0
-2.0776417 -5.9484844 -0.66964006 0
-2.047543 -5.9578938 -0.66981471 0
-2.0270326 -5.9875917 -0.67462933 0
-1.9924558 -5.9718294 -0.67020202 0
-2.228898 -6.8117733 -0.62646747 0
-2.6055241 -8.1050596 -0.59021795 0
-2.5655887 -8.1092453 -0.59057248 0
-5.9385748 -19.28557 -0.81568015 0
-1.8577578 -5.9791431 -0.66649091 0
-2.4704769 -8.1323223 -0.59124184 0
-5.6339898 -19.078613 -0.80658138 0
-1.7921873 -6.01791 -0.66663885 0
-2.3751497 -8.1654053 -0.591766 0
-5.3441324 -18.881941 -0.79221261 0
-1.7221676 -6.0315828 -0.66717863 0
-2.2801526 -8.1835051 -0.59250295 0
-5.0223556 -18.539448 -0.77012694 0
-1.6520406 -6.0502625 -0.6676451 0
-2.18505 -8.2066145 -0.59316719 0
-2.1500084 -8.2159252 -0.59341145 0
-4.5239429 -17.817698 -0.72493851 0
-1.5474455 -6.0482144 -0.66374373 0
-2.0550163 -8.2340517 -0.5941422 0
-4.2639976 -17.62187 -0.71524012 0
-1.4821357 -6.0770903 -0.66902852 0
-1.9599199 -8.2571859 -0.59480071 0
-4.0041094 -17.421005 -0.70058835 0
-1.4118 -6.1057944 -0.669348 0
-3.842998 -17.262413 -0.69436073 0
-1.3670964 -6.0999641 -0.66988444 0
-1.8048784 -8.2891607 -0.59593666 0
-3.5892253 -17.006649 -0.67540359 0
-1.2970889 -6.1136856 -0.67041183 0
-3.4420469 -16.898462 -0.67334116 0
-1.418977 -6.9560418 -0.62281239 0
-5.6028342 -28.608294 -0.64364982 0
-1.6303363 -8.3007164 -0.59255552 0
-3.1580231 -16.662197 -0.65939927 0
-1.1674137 -6.121254 -0.66662288 0
-1.5354648 -8.3139029 -0.59334004 0
-1.0113914 -5.4834118 -0.70680726 0
-1.7824394 -10.099017 -0.53175676 0
-1.0824745 -6.1347294 -0.66729784 0
-2.72932 -16.192665 -0.63006067 0
-1.1794417 -6.9816155 -0.62489903 0
-4.2613244 -26.50791 -0.57550144 0
-1.3363379 -8.3100357 -0.59038663 0
-0.88180935 -5.4860787 -0.70307314 0
-1.5437412 -10.084291 -0.52935517 0
-0.93789786 -6.1421475 -0.66864574 0
-2.2766531 -15.677749 -0.60154641 0
-1.0149391 -6.9885392 -0.62144899 0
-3.6437979 -26.524961 -0.58145022 0
-1.1421342 -8.3113899 -0.59231317 0
-0.75204724 -5.4988427 -0.70418859 0
-1.3098598 -10.079792 -0.53176069 0
-0.79318506 -6.1545258 -0.66491222 0
-1.8616018 -15.273887 -0.58112812 0
-0.85004723 -7.015564 -0.62270856 0
-2.9983139 -26.201252 -0.57226837 0
-0.94810987 -8.302721 -0.58936131 0
-0.62257284 -5.496572 -0.70050251 0
-1.076157 -10.065282 -0.52928388 0
-0.65371603 -6.1571174 -0.66627479 0
-1.4879431 -15.041148 -0.56797993 0
-0.690997 -7.0027437 -0.62447512 0
-2.3019257 -25.191135 -0.54279757 0
-0.75408417 -8.2940989 -0.58639157 0
-0.493233 -5.4894023 -0.70187294 0
-1.2239361 -14.800643 -0.55382335 0
-0.571904 -6.9805603 -0.62093234 0
-1.8787946 -24.947321 -0.53525031 0
-0.6149947 -8.2764988 -0.58298004 0
-0.4036938 -5.4828525 -0.69783866 0
-0.67403364 -10.007615 -0.52400672 0
-0.40487289 -6.1477828 -0.66382468 0
-0.87028152 -14.563472 -0.54049337 0
-0.41663226 -7.0279574 -0.62682354 0
-1.302922 -24.8757 -0.53684652 0
-0.4262006 -8.2581291 -0.58508217 0
-0.27442434 -5.4706669 -0.69425631 0
-0.44083333 -9.9682589 -0.52180314 0
-0.26547563 -6.1453943 -0.66022134 0
-0.53190953 -14.311766 -0.53220224 0
-0.2530376 -6.9900055 -0.61892259 0
-0.74992901 -25.154995 -0.55346382 0
-0.23747474 -8.2347355 -0.58223248 0
-0.16602257 -6.1387515 -0.66127193 0
-0.29614535 -14.152082 -0.52162302 0
-0.13837719 -6.9981236 -0.62490964 0
-0.34403121 -25.292107 -0.56049764 0
-0.10330349 -8.2223921 -0.5836848 0
-0.060843758 -5.442194 -0.69170582 0
-0.053290188 -9.9312124 -0.52104414 0
-0.021933483 -6.1213222 -0.65788007 0
0.027018907 -13.885823 -0.5133214 0
0.025504908 -6.9753008 -0.62177551 0
0.21028274 -23.655159 -0.51296163 0
0.0850242 -8.1790781 -0.5810672 0
0.063508809 -5.435256 -0.69298816 0
0.17510433 -9.9021692 -0.52360868 0
0.11743686 -6.119091 -0.65924132 0
0.33636665 -13.674927 -0.50412309 0
0.18456753 -6.9626813 -0.62345898 0
0.71481597 -22.509687 -0.47822765 0
0.27404132 -8.170866 -0.58296216 0
0.18768835 -5.4182839 -0.68939292 0
0.39833635 -9.8632135 -0.52124918 0
0.25630161 -6.0918999 -0.66092157 0
0.63478202 -13.414253 -0.49046513 0
0.34325793 -6.930037 -0.62039173 0
1.1795784 -21.615368 -0.45468619 0
0.45768693 -8.1427383 -0.5800736 0
0.31684148 -5.4013076 -0.69081402 0
0.62154609 -9.824378 -0.5238651 0
0.39520338 -6.0646725 -0.65758455 0
1.8914039 -26.760635 1.2484041 0
1.951085 -26.759533 1.24783 0
2.0035584 -26.648563 1.2458421 0
2.5535617 -32.876186 3.0150967 0
2.6292934 -32.929729 3.0201061 0
2.7098227 -32.973175 3.0249541 0
2.8214707 -33.315769 3.0535786 0
2.9022944 -33.374218 3.0586207 0
2.97279 -33.417934 3.058527 0
3.0573814 -33.416367 3.0577545 0
3.1398294 -33.554729 3.068841 0
0.49509084 -5.3485718 -0.68318892 0
0.5737251 -6.0268879 -0.65474355 0
0.67576057 -6.8746953 -0.61921179 0
0.80975562 -8.071908 -0.57927752 0
1.3275261 -12.961719 -0.47799847 0
3.4235187 -32.54039 0.68730831 0
3.4358048 -31.970596 2.1846528 0
3.6504993 -33.240387 3.8300083 0
0.5844171 -5.3322577 -0.68421233 0
0.59973276 -5.352088 -0.68908226 0
0.60404241 -5.3169351 -0.67960858 0
0.93345618 -8.0349388 -0.58091378 0
1.5237854 -12.818213 -0.47170994 0
2.3728871 -19.577448 -0.40320632 0
4.0688548 -32.953514 0.68699133 0
4.0583529 -32.239063 2.1976123 0
4.1682677 -32.521889 2.9855101 0
4.259057 -32.580235 2.985503 0
4.2816911 -32.21003 2.1952133 0
4.4342952 -32.83691 1.4521935 0
4.46805 -32.541397 1.4428979 0
4.425776 -31.692518 1.4118327 0
2.6997592 -19.001406 -0.38892195 0
1.3891109 -9.6214247 -0.51861465 0
0.99799943 -6.8047128 -0.61808419 0
0.78765738 -5.2843266 -0.68169594 0
2.8725541 -18.683241 -0.37975654 0
1.4981891 -9.5996666 -0.51988387 0
1.0771511 -6.7785177 -0.61913264 0
3.0069475 -18.435827 -0.37428346 0
1.3148425 -7.9338279 -0.57568574 0
0.88667595 -5.2528753 -0.67798436 0
1.6463083 -9.5372448 -0.51703382 0
1.03434 -5.9000192 -0.65058553 0
2.2156413 -12.316305 -0.45464543 0
1.2309551 -6.7512436 -0.62086344 0
0.96592069 -5.2318225 -0.67897904 0
3.3569953 -17.774666 -0.36127403 0
1.513032 -7.8858004 -0.57807362 0
1.0103244 -5.2112417 -0.67964852 0
1.8733414 -9.4386387 -0.51535714 0
1.3494489 -6.699471 -0.61759269 0
1.0599234 -5.2005658 -0.68021739 0
3.6075299 -17.360306 -0.34902367 0
2.5446379 -12.090908 -0.45055929 0
2.5743091 -12.080423 -0.45094672 0
2.0217474 -9.3913412 -0.51727688 0
1.4533107 -6.6629286 -0.61398363 0
1.1441063 -5.1743808 -0.67628825 0
3.8301089 -17.041569 -0.34521088 0
2.1253667 -9.344758 -0.51878834 0
1.5273856 -6.6318841 -0.61503291 0
1.2036579 -5.1635995 -0.67694449 0
3.9801493 -16.82906 -0.33935621 0
2.2292097 -9.3081236 -0.51516771 0
1.8789841 -7.7603316 -0.57791638 0
1.6217784 -6.6205397 -0.61598778 0
1.419549 -5.7345896 -0.64113271 0
1.440039 -5.7643394 -0.64591122 0
1.6610934 -6.5950208 -0.61667001 0
1.9680918 -7.7340326 -0.57901883 0
2.3724465 -9.2509813 -0.51714718 0
4.2513213 -16.449606 -0.3317273 0
5.5451207 -21.256948 0.0066765249 0
7.0626903 -26.856104 1.8789022 0
6.7799959 -25.524591 2.418551 0
6.8755231 -25.64003 3.0543542 0
1.3768414 -5.1064005 -0.67917681 0
1.5587494 -5.7227635 -0.64745724 0
2.1065745 -7.6870551 -0.58081055 0
3.2076192 -11.635416 -0.44229868 0
4.4734926 -16.111097 -0.32812867 0
4.5022888 -16.055593 -0.32409474 0
6.474299 -22.906164 -0.024093509 0
7.2094812 -25.280441 1.786639 0
7.3689055 -25.599672 2.4296482 0
1.4708689 -5.0752196 -0.68036938 0
1.8986009 -6.516716 -0.61469913 0
4.6427016 -15.858413 -0.32288739 0
7.3942628 -25.067617 1.7772658 0
1.5107186 -5.0746956 -0.68069923 0
2.2797413 -7.6295557 -0.57801306 0
4.7193422 -15.70723 -0.32052317 0
7.6118655 -25.166534 1.1667345 0
7.7376423 -25.378908 2.4186387 0
7.8378267 -25.479366 3.0542295 0
7.923985 -25.552799 3.0645013 0
7.9352908 -25.377932 3.0470877 0
7.8351951 -24.875559 2.9912069 0
4.8923025 -15.394621 -0.31610134 0
3.661638 -11.433543 -0.44373152 0
2.9153547 -9.0079889 -0.51487136 0
2.9402297 -9.0076771 -0.52007127 0
2.1210818 -6.4337602 -0.61760962 0
1.6689855 -5.0178027 -0.68275166 0
6.3497953 -18.944857 0.014238179 0
5.0843201 -15.036741 -0.30740014 0
2.5766749 -7.5354557 -0.58167112 0
1.7232965 -4.9921184 -0.67853105 0
3.1180615 -8.9351349 -0.51747382 0
2.2493582 -6.3721194 -0.6194514 0
1.7728181 -4.976512 -0.67912352 0
5.2772102 -14.723951 -0.3030946 0
3.2218249 -8.8936825 -0.51884019 0
2.0388074 -5.5666976 -0.65343201 0
8.1301546 -22.069855 -0.043629199 0
4.1228075 -11.086874 -0.44200447 0
2.7887671 -7.4326792 -0.58472514 0
2.3928573 -6.325316 -0.6212188 0
1.8865818 -4.9352045 -0.68056953 0
5.5241165 -14.370381 -0.29470971 0
3.4090004 -8.7911844 -0.52168012 0
2.4721565 -6.304287 -0.62210572 0
2.1772597 -5.5150542 -0.65520525 0
6.9112015 -17.397249 0.019340485 0
8.1198664 -20.316265 -0.026666671 0
3.5272489 -8.7245378 -0.51846242 0
2.5509605 -6.2583017 -0.61832833 0
2.5658033 -6.2531176 -0.61851025 0
3.0205641 -7.3146358 -0.58306897 0
3.6011326 -8.6835794 -0.51957536 0
3.6105788 -8.6585045 -0.51998508 0
4.5357537 -10.816092 -0.43878147 0
5.8739672 -13.935551 -0.29313657 0
7.2042804 -16.998056 0.44687411 0
7.211803 -16.892773 1.3055279 0
24.378752 -56.915108 2.2786701 0
24.502424 -56.878197 2.2772119 0
24.59408 -56.731861 2.2746043 0
7.5613098 -17.28755 0.0079110265 0
6.049408 -13.743168 -0.29199669 0
6.0786109 -13.707762 -0.29266217 0
3.8278046 -8.5606556 -0.52291071 0
3.2423754 -7.1969099 -0.58630395 0
2.7930064 -6.1554627 -0.6265167 0
2.4636965 -5.3867841 -0.65906811 0
2.2127082 -4.796627 -0.68487501 0
6.2490854 -13.515508 -0.29146007 0
3.9660599 -8.4988708 -0.52474797 0
3.3505926 -7.1255646 -0.58303702 0
2.5325797 -5.341001 -0.65517521 0
7.9842792 -16.771881 0.0030266345 0
5.016624 -10.449718 -0.43717113 0
3.429491 -7.0846272 -0.58415473 0
2.5969493 -5.320281 -0.65592039 0
8.4381828 -17.208183 2.2405412 0
8.0086842 -16.24721 0.006038934 0
8.1780691 -16.49939 0.0030626357 0
8.1554699 -16.364883 0.0064814985 0
7.9875884 -15.93791 0.012180597 0
8.0582781 -15.986856 0.0073003173 0
8.1809711 -16.144817 0.0084446669 0
8.4432554 -16.560469 -0.0030784011 0
8.3429956 -16.27729 0.0039854646 0
9.3356714 -18.103073 1.8755435 0
8.7522554 -16.864273 2.6638489 0
2.4546735 -4.6842122 -0.69310296 0
2.7496378 -5.2287068 -0.65820873 0
3.1583903 -5.9863019 -0.63138795 0
5.3745632 -10.160241 -0.43851015 0
8.4871178 -16.010645 -0.00048321486 0
27.749588 -52.208252 2.1276014 0
9.3804016 -17.488516 2.2973528 0
2.5085306 -4.6337175 -0.68914032 0
3.232456 -5.9504576 -0.63236511 0
4.4582319 -8.1928663 -0.52727735 0
28.41416 -52.312855 2.1342099 0
9.5948105 -17.499306 3.2560523 0
4.4978766 -8.1823826 -0.52769864 0
28.52445 -51.962727 0.74381423 0
9.5027199 -17.141897 3.2021201 0
3.8187845 -6.8651719 -0.58979189 0
28.672764 -51.655849 0.73885268 0
9.3487921 -16.685751 3.1323521 0
3.8532815 -6.8447676 -0.59028625 0
8.6592274 -15.394135 0.0053862631 0
9.3605289 -16.531153 3.1102898 0
3.3456874 -5.8792605 -0.62908638 0
8.8312387 -15.526474 0.0008841455 0
9.2325535 -16.124475 3.0459921 0
3.3752751 -5.8639898 -0.63448226 0
10.084247 -17.554008 1.3831409 0
9.7664881 -16.882919 4.1221404 0
5.7073817 -9.8562918 -0.43475947 0
9.4367228 -16.231289 2.6258938 0
3.9617147 -6.7835746 -0.59182358 0
10.176381 -17.427998 1.3759066 0
3.0012381 -5.0961719 -0.66167367 0
7.4273138 -12.640219 -0.30118826 0
9.2889833 -15.720127 2.9954448 0
3.0258715 -5.080924 -0.66203272 0
7.4762545 -12.59459 -0.29710951 0
9.3761082 -15.703918 2.564604 0
10.117162 -16.852341 4.6293831 0
10.020405 -16.727272 0.87802005 0
10.365955 -17.192785 4.231957 0
8.8082266 -14.613453 0.0044280589 0
10.046713 -16.576321 2.696095 0
3.5128767 -5.7625914 -0.63171721 0
5.9032092 -9.6791 -0.43835679 0
10.023054 -16.377703 1.7686554 0
2.7851806 -4.5061216 -0.69768369 0
4.8760304 -7.8981295 -0.52892888 0
10.184463 -16.475145 1.7787925 0
10.254066 -16.493006 3.6287048 0
4.1688542 -6.671308 -0.59465718 0
7.720706 -12.356759 -0.30178544 0
10.336062 -16.462772 2.2426562 0
2.8342867 -4.4656596 -0.69351947 0
4.218204 -6.6457686 -0.59530842 0
4.9792299 -7.8219624 -0.52558315 0
7.8236575 -12.270555 -0.30356327 0
10.424663 -16.277298 1.7746812 0
10.321809 -16.024113 3.1072972 0
2.8835473 -4.4352617 -0.69423652 0
3.6749523 -5.636004 -0.62939298 0
5.0729117 -7.7709699 -0.53184676 0
7.9459829 -12.154115 -0.30083922 0
10.673355 -16.253893 1.7777381 0
10.727639 -16.242737 2.6973257 0
2.9326375 -4.3948693 -0.69506156 0
3.7441192 -5.6053672 -0.63523817 0
5.1614504 -7.7100201 -0.53319049 0
8.0785551 -12.05257 -0.3029826 0
9.6140423 -14.288066 -0.0050652921 0
9.4124298 -13.916599 0.0016135573 0
11.262907 -16.574593 1.8228821 0
11.08616 -16.227762 2.7147794 0
10.896744 -15.866559 3.1265428 0
10.936201 -15.846088 3.1260326 0
10.996114 -15.850212 3.1307027 0
11.074347 -15.88913 2.6806445 0
9.7721176 -13.961704 -0.010151565 0
8.3182249 -11.819961 -0.30743548 0
6.4964252 -9.1725855 -0.43861881 0
4.5724807 -6.407259 -0.60061502 0
3.4592137 -4.8020496 -0.6683948 0
10.086895 -14.002407 -0.016662061 0
6.5945435 -9.0915747 -0.44024947 0
4.6462016 -6.3515525 -0.60176682 0
3.5133774 -4.7666163 -0.66918063 0
10.034206 -13.599068 -0.011307597 0
6.6976728 -9.0104866 -0.44189319 0
4.7251 -6.3057671 -0.60282469 0
3.572459 -4.7261052 -0.67004168 0
10.375783 -13.734192 -0.016783386 0
6.7958989 -8.934495 -0.44344577 0
4.7937479 -6.2451644 -0.60399199 0
3.6214614 -4.6807718 -0.67090273 0
10.410342 -13.459443 -0.015362799 0
6.8939629 -8.8485155 -0.44509813 0
5.7269168 -7.3043365 -0.54179144 0
4.8721709 -6.1745195 -0.6053406 0
4.1864047 -5.2664967 -0.6372124 0
3.6951237 -4.6202297 -0.67209005 0
4.2059608 -5.2463803 -0.63758075 0
4.9363208 -6.138895 -0.60616267 0
4.2305164 -5.2261806 -0.63797247 0
3.7446055 -4.5998011 -0.67264152 0
3.3659012 -4.1016054 -0.70639157 0
33.952003 -41.661533 0.57954156 0
10.563077 -12.849154 -0.018705249 0
9.0746651 -10.977384 -0.3124378 0
7.1841512 -8.6405754 -0.44937792 0
5.9577117 -7.1172071 -0.54544926 0
5.0941472 -6.0474577 -0.61321259 0
4.353394 -5.130198 -0.63986111 0
3.8577898 -4.518981 -0.67928541 0
34.908028 -41.084534 0.56690389 0
10.945486 -12.769403 -0.021928996 0
7.3512974 -8.5139179 -0.45187989 0
5.2077031 -5.9863863 -0.61461341 0
3.9115472 -4.4586501 -0.67532384 0
10.863358 -12.386646 -0.02102986 0
7.4495807 -8.4379997 -0.453365 0
5.2865362 -5.9357219 -0.62067187 0
3.9808068 -4.4280739 -0.68108213 0
10.878265 -12.122276 -0.01926434 0
7.5477037 -8.3520985 -0.45494834 0
5.3451729 -5.8702965 -0.61678994 0
4.019681 -4.3729539 -0.68196082 0
10.878041 -11.848154 -0.017510951 0
7.6305919 -8.2514553 -0.45660904 0
5.413794 -5.8047628 -0.61794674 0
4.0636668 -4.3226995 -0.67780364 0
10.964389 -11.667665 -0.020122349 0
7.7389832 -8.1804075 -0.4580566 0
5.4570932 -5.7196579 -0.61919117 0
4.1330228 -4.2971435 -0.68349147 0
11.101747 -11.546343 -0.022310585 0
7.8218927 -8.0797863 -0.45969465 0
5.5207539 -5.6541681 -0.61530793 0
4.1769137 -4.2419558 -0.68437576 0
10.81199 -10.991871 -0.012183279 0
7.9149776 -7.9890084 -0.46126172 0
5.5793991 -5.5888247 -0.61639333 0
4.2360549 -4.2015266 -0.68516529 0
11.081821 -11.018455 -0.018352836 0
8.0132341 -7.9081607 -0.46273574 0
5.653193 -5.5332904 -0.62243438 0
4.2952614 -4.1661539 -0.69089544 0
11.224402 -10.907081 -0.020405859 0
8.1063395 -7.8174038 -0.46428022 0
5.7117953 -5.4629064 -0.61855662 0
4.3291125 -4.1060948 -0.68676782 0
11.387319 -10.815393 -0.022326678 0
8.1945381 -7.7317395 -0.46573779 0
5.7806034 -5.4074688 -0.62455893 0
4.3933282 -4.0706525 -0.69250989 0
11.30648 -10.492609 -0.020583719 0
8.2825022 -7.6310868 -0.46734139 0
5.839221 -5.3370996 -0.62066507 0
4.4423289 -4.0204105 -0.69333398 0
3.9952493 -3.5980327 -0.72580624 0
11.417786 -10.306973 -0.023268402 0
10.228132 -9.1892481 -0.31478021 0
10.247627 -9.1641121 -0.31516388 0
10.256964 -9.1291399 -0.31560501 0
8.4187899 -7.4452963 -0.47014937 0
5.951786 -5.216486 -0.62760437 0
5.1395421 -4.4749303 -0.6617918 0
4.5354295 -3.9250255 -0.69488966 0
4.0683451 -3.4978645 -0.72230554 0
37.310654 -32.341747 0.45213473 0
36.932545 -31.863266 0.44870034 0
11.488615 -9.8180647 -0.019122809 0
10.457198 -8.8927364 -0.31927273 0
7.1091824 -5.9935961 -0.56476629 0
5.2325525 -4.3745241 -0.66338384 0
4.6135006 -3.824796 -0.69639492 0
11.883898 -9.8780861 -0.030434966 0
8.6679554 -7.153718 -0.474659 0
6.1176686 -5.005743 -0.6257869 0
4.6524425 -3.7697511 -0.69719744 0
11.99118 -9.7424097 -0.032468468 0
8.7611294 -7.0630646 -0.47611836 0
6.171299 -4.9355617 -0.62682557 0
4.69139 -3.7147133 -0.69799423 0
11.885672 -9.4300528 -0.030381709 0
8.8442373 -6.9675779 -0.47757241 0
6.2248597 -4.860384 -0.6279068 0
4.7505798 -3.6743598 -0.69872153 0
12.048701 -9.3385153 -0.032170117 0
8.9323559 -6.8720231 -0.47903761 0
6.2632742 -4.7754512 -0.62901449 0
4.7793841 -3.6094916 -0.69956315 0
12.100338 -9.1587448 -0.034366965 0
9.0054083 -6.771718 -0.48047593 0
6.3017974 -4.6954737 -0.62506378 0
4.8284297 -3.5593088 -0.70033538 0
4.3422923 -3.1823092 -0.73210108 0
36.999413 -27.36869 0.39906305 0
12.27194 -8.9875231 -0.037021101 0
10.984941 -7.9955544 -0.3216323 0
9.1170864 -6.5963225 -0.48288193 0
11.01398 -7.9454918 -0.32230583 0
11.023347 -7.9105387 -0.32271984 0
12.131564 -8.6757002 -0.03469792 0
37.058887 -26.521286 0.38972265 0
36.955395 -26.31839 0.38804585 0
37.847691 -26.819307 1.4693136 0
38.153515 -26.904129 2.5688713 0
4.4401646 -3.0671337 -0.73377764 0
4.9203506 -3.3894815 -0.6975683 0
4.9302416 -3.3844478 -0.69766867 0
4.9399781 -3.3694158 -0.69786847 0
4.9397159 -3.3545387 -0.69802451 0
4.954607 -3.3494279 -0.6981461 0
4.9543447 -3.3345532 -0.69830179 0
4.96416 -3.3245211 -0.6984508 0
4.4785614 -2.9774461 -0.73489428 0
38.469452 -25.846189 0.37617308 0
12.398323 -8.234683 -0.035552621 0
11.284922 -7.4598107 -0.32865897 0
7.8022695 -5.1106687 -0.57754672 0
5.68468 -3.6840396 -0.6679275 0
4.5272293 -2.9024925 -0.73588705 0
11.357363 -7.3196845 -0.33043143 0
7.8657022 -5.0254703 -0.57870889 0
5.7234344 -3.6140902 -0.66881871 0
4.5664158 -2.8574665 -0.73652363 0
11.414764 -7.1747513 -0.32717499 0
7.9291453 -4.9402771 -0.57986128 0
5.7673502 -3.5540645 -0.669626 0
4.5904579 -2.8026724 -0.7371887 0
12.382655 -7.5799851 1.3228555 0
12.377014 -7.545342 1.3175247 0
12.376319 -7.5055747 1.317124 0
12.385696 -7.4706597 1.3167301 0
12.400152 -7.4406638 1.3163645 0
5.1442661 -3.0496631 -0.70206273 0
6.855001 -4.0635014 -0.6491369 0
6.8648105 -4.0534949 -0.64928102 0
9.6656218 -5.7000127 -0.49462119 0
12.790428 -7.5288653 -0.044490695 0
40.849411 -24.073294 1.4476705 0
40.993523 -24.031637 1.4516416 0
41.379959 -24.1413 1.461103 0
41.861336 -24.277664 3.7355659 0
4.7030721 -2.667635 -0.74402714 0
5.2125196 -2.9497304 -0.70335281 0
5.9336805 -3.3488131 -0.67740178 0
5.9333496 -3.3289514 -0.67759717 0
5.9481683 -3.3188605 -0.67775881 0
5.9529133 -3.3039205 -0.67792642 0
5.9627333 -3.293905 -0.67806661 0
5.9674039 -3.2739661 -0.67828166 0
5.9772248 -3.2639511 -0.67842126 0
5.9870453 -3.2539363 -0.67856073 0
5.9917922 -3.2389972 -0.67872691 0
6.0066128 -3.2289083 -0.67888653 0
6.0163598 -3.2138948 -0.67907298 0
5.3253064 -2.8246186 -0.71505225 0
4.8006048 -2.5228107 -0.74585569 0
42.346813 -22.557222 0.32636929 0
11.90848 -6.259181 -0.3383989 0
8.3535461 -4.3443708 -0.59757853 0
6.0698223 -3.1240299 -0.68016446 0
4.8496475 -2.4678388 -0.75158703 0
13.282341 -6.7922487 -0.053776324 0
11.960341 -6.0746398 -0.34039208 0
8.4367332 -4.2391062 -0.59892797 0
6.1284533 -3.0440094 -0.68616891 0
4.8834991 -2.3980465 -0.75239134 0
12.053169 -5.9493051 -0.34196314 0
8.485199 -4.1492047 -0.59998 0
6.1673636 -2.9791083 -0.6869415 0
5.4718423 -2.6197479 -0.72260845 0
39.939514 -19.327047 0.30496314 0
13.264735 -6.3351326 -0.05306825 0
12.129869 -5.7546268 -0.34411165 0
10.204982 -4.7993827 -0.50558615 0
8.5928049 -4.0089769 -0.60672772 0
8.5974741 -3.9890718 -0.60693252 0
8.6171408 -3.9689519 -0.6071974 0
7.3075538 -3.3386517 -0.66301179 0
5.524755 -2.4901869 -0.71902966 0
5.5446415 -2.4850709 -0.724154 0
4.9854941 -2.2135785 -0.75452328 0
39.730133 -17.907122 1.3075174 0
40.11681 -17.971508 0.29157612 0
39.41037 -17.547253 0.2903606 0
39.574638 -17.510416 0.28939134 0
41.076778 -18.06461 1.333814 0
38.901779 -17.001183 0.28726956 0
13.440678 -5.7913899 -0.058806509 0
13.480323 -5.7710443 -0.059143305 0
13.484756 -5.7362056 -0.059478521 0
13.489263 -5.7063661 -0.059766978 0
13.468485 -5.6568894 -0.060139894 0
13.407495 -5.592989 -0.060491383 0
12.460028 -5.164454 -0.35083237 0
13.446583 -5.5378766 -0.061137557 0
13.425952 -5.4983969 -0.061416119 0
13.480674 -5.4828391 -0.061761469 0
12.518233 -5.0544648 -0.35204324 0
10.500095 -4.1999784 -0.51721799 0
12.527199 -4.9897642 -0.35265771 0
10.529366 -4.1549377 -0.51773012 0
10.539041 -4.1349874 -0.51794302 0
8.9138746 -3.4641941 -0.61792457 0
6.4591851 -2.4749625 -0.69767952 0
5.1310816 -1.9345437 -0.76259482 0
5.1359267 -1.9245961 -0.76269984 0
41.670952 -15.888678 1.301948 0
13.529171 -5.0748158 -0.060576707 0
13.518552 -5.035192 -0.06088686 0
12.571765 -4.6464186 -0.35086563 0
12.561223 -4.6117845 -0.35112998 0
12.575822 -4.586791 -0.35140088 0
10.71478 -3.8698037 -0.52592504 0
7.6426196 -2.7195911 -0.67484069 0
6.5314622 -2.3006411 -0.70447099 0
6.5462322 -2.2855706 -0.70465612 0
6.5410047 -2.2707827 -0.70476341 0
5.8018513 -1.9916054 -0.73952246 0
5.2235513 -1.77011 -0.76936126 0
43.325607 -14.973241 1.317976 0
12.224161 -4.143652 -0.33397093 0
9.132432 -3.0546973 -0.62728786 0
6.5944834 -2.1710067 -0.70581007 0
5.2123909 -1.6909566 -0.76499462 0
15.630168 -5.116878 0.26725483 0
11.633664 -3.7628088 -0.3001174 0
10.818556 -3.4663446 -0.52475858 0
7.7584767 -2.4504538 -0.68255377 0
5.8793788 -1.8272123 -0.74119329 0
15.767186 -4.9265027 0.26516619 0
11.595832 -3.5744994 -0.29656938 0
9.2838736 -2.8247304 -0.63976359 0
6.6667991 -1.9916774 -0.70757377 0
5.2953849 -1.5563226 -0.77141571 0
11.533405 -3.4113262 -0.29270884 0
9.2821875 -2.7105656 -0.63570344 0
6.6856976 -1.9171158 -0.70825386 0
5.3195872 -1.5016047 -0.77194762 0
11.290348 -3.2005773 -0.28360108 0
9.330698 -2.6107578 -0.63668978 0
6.7196536 -1.8473951 -0.71393931 0
5.3487086 -1.4418691 -0.77753627 0
11.40375 -3.0950243 -0.28484985 0
9.2437201 -2.4727268 -0.62751365 0
7.9181237 -2.0915463 -0.69106495 0
5.9802928 -1.5486294 -0.74883139 0
5.9800797 -1.5337664 -0.74895084 0
45.723305 -11.945587 1.3194127 0
11.380823 -2.8967679 -0.28637668 0
9.0909424 -2.2758522 -0.60858107 0
7.9763618 -1.9719092 -0.69722772 0
6.0189409 -1.4540482 -0.74972367 0
5.4065113 -1.287726 -0.77897274 0
44.571674 -10.891632 2.3549242 0
13.360523 -3.1845114 -0.060789317 0
9.8017588 -2.2960238 -0.44081923 0
9.8264675 -2.2758749 -0.44106361 0
9.7860479 -2.2466028 -0.44115499 0
8.9273443 -2.0196178 -0.59005904 0
8.0337934 -1.7927334 -0.69883943 0
6.8597021 -1.5038582 -0.72216082 0
6.0668907 -1.3099296 -0.75601661 0
5.4396405 -1.1536808 -0.78013492 0
45.728931 -9.967186 1.2887021 0
13.35544 -2.8320782 -0.0585334 0
11.674175 -2.4417887 -0.29595074 0
9.7927408 -2.0133109 -0.43799397 0
8.8491669 -1.7922957 -0.58156013 0
8.1012516 -1.6134815 -0.70545387 0
8.1160412 -1.5984458 -0.70561695 0
8.8282175 -1.7230433 -0.57702231 0
8.125556 -1.5636408 -0.70591235 0
8.8176651 -1.683525 -0.5772841 0
8.8123226 -1.6587698 -0.57745659 0
9.9605103 -1.857649 -0.44974074 0
11.680317 -2.168792 -0.29805419 0
13.214717 -2.4266665 -0.056163788 0
14.473477 -2.6260533 1.6262556 0
14.618402 -2.6193166 1.6357286 0
14.264355 -2.5187204 2.2911654 0
5.5166354 -0.93504882 -0.79205239 0
8.1933441 -1.404248 -0.71233475 0
11.557669 -1.9766152 -0.29409721 0
71.482986 -12.421166 1.8221583 0
14.123223 -2.3589683 2.6054482 0
7.0096631 -1.1404717 -0.73541749 0
8.7891397 -1.4259121 -0.57412326 0
45.019554 -7.4847031 0.18716535 0
14.712245 -2.3592312 2.343514 0
7.0340438 -1.0956393 -0.74082708 0
11.495371 -1.808633 -0.290131 0
13.716254 -2.1294575 1.5450423 0
5.5601702 -0.82567942 -0.79800117 0
8.7777481 -1.3218746 -0.56984925 0
45.924206 -7.1060319 0.18142673 0
14.133329 -2.0988107 2.2584894 0
6.2161303 -0.88727546 -0.76968598 0
8.7869453 -1.2622662 -0.57031274 0
11.538267 -1.654312 -0.29139712 0
13.659667 -1.9340206 1.8638197 0
5.5791974 -0.75120533 -0.7986021 0
8.2595968 -1.1258216 -0.71459174 0
10.529526 -1.4296616 -0.48975471 0
14.132073 -1.9037583 1.2470431 0
14.993383 -1.9855721 2.7298956 0
8.2788553 -1.0711058 -0.72004628 0
45.214672 -6.0509243 0.17608863 0
14.626541 -1.8663486 2.6702259 0
8.3033962 -1.0361143 -0.72037518 0
46.973625 -6.0604095 1.2704957 0
13.108251 -1.6056588 2.738245 0
10.392393 -1.267506 -0.4804664 0
14.2469 -1.7182215 1.9203699 0
12.772708 -1.5034589 2.9836137 0
13.378176 -1.5860356 -0.067832351 0
13.892644 -1.6131473 2.545799 0
8.3121614 -0.94181848 -0.72106981 0
14.128078 -1.6111082 1.2399764 0
6.2884698 -0.68344784 -0.7763679 0
10.736302 -1.189216 -0.50212586 0
13.899059 -1.5192945 1.8800939 0
12.850843 -1.3635751 2.9973764 0
13.361149 -1.4323738 -0.063852936 0
12.953557 -1.3527604 2.3869939 0
8.9073353 -0.91384339 -0.5781703 0
13.986773 -1.431556 1.5591865 0
13.009973 -1.2920498 3.0263684 0
47.399395 -4.9212041 0.16106652 0
13.344215 -1.3000787 2.7753446 0
11.711427 -1.1412874 -0.30058399 0
12.606208 -1.1936554 2.3269966 0
13.05999 -1.2094762 3.3556519 0
49.366558 -4.7837682 1.3038398 0
6.3268795 -0.55924535 -0.78234828 0
11.70033 -1.057055 -0.3011317 0
12.880587 -1.135528 2.370723 0
8.4293079 -0.72237754 -0.73296773 0
13.568117 -1.1689937 1.5137174 0
12.925932 -1.0775954 2.6901505 0
10.612288 -0.878052 -0.49388197 0
13.053631 -1.0613797 2.084651 0
12.511488 -0.98404193 3.2208619 0
49.863159 -4.1465402 1.3078854 0
6.3658075 -0.47462663 -0.7880491 0
11.81838 -0.90685964 -0.30753061 0
5.6897583 -0.40355113 -0.81637192 0
9.0189905 -0.65475345 -0.59030354 0
14.013499 -1.014167 2.2162671 0
8.5326996 -0.59731138 -0.74414217 0
13.510242 -0.95149279 1.5074348 0
12.994362 -0.87585074 3.0135798 0
13.694618 -0.93219018 -0.078346223 0
13.238313 -0.8652072 2.7427216 0
10.835007 -0.70192671 -0.51077676 0
13.702505 -0.86685175 2.4962857 0
9.1127644 -0.55952275 -0.60123837 0
12.769695 -0.77247012 2.0436113 0
8.5314608 -0.4981575 -0.744802 0
13.678407 -0.80549175 1.5209209 0
7.2200651 -0.39992625 -0.76126838 0
48.78846 -2.9412384 0.14317365 0
6.3890224 -0.33076569 -0.79408205 0
13.912433 -0.76091659 -0.085174501 0
5.7031898 -0.27468696 -0.81727004 0
10.698055 -0.54473752 -0.50138283 0
12.767817 -0.62873727 2.0376701 0
8.5852747 -0.40335605 -0.75059867 0
13.756503 -0.65571666 1.5246878 0
6.408299 -0.27108204 -0.79453778 0
11.92366 -0.53349084 -0.31034812 0
13.733915 -0.58872372 2.4993534 0
13.256146 -0.53261656 3.3854907 0
15.475694 -0.63666946 1.3190823 0
12.227307 -0.45735949 2.5482438 0
9.1949778 -0.33545914 -0.60796857 0
15.141874 -0.55090666 2.0046101 0
12.708239 -0.42368647 2.9465151 0
11.941978 -0.3993603 -0.31627551 0
13.626767 -0.4264901 2.4786389 0
12.708525 -0.36675832 3.2511599 0
14.757962 -0.43729183 1.2700747 0
11.945256 -0.31247696 2.4932091 0
9.2486887 -0.23071194 -0.61381555 0
15.281074 -0.3875376 2.3831396 0
7.2620435 -0.15169641 -0.76801491 0
11.990327 -0.26482269 -0.31729081 0
5.7510557 -0.095963411 -0.82357109 0
8.6572275 -0.15471551 -0.76242352 0
14.08656 -0.25464946 1.5510525 0
6.4410381 -0.082531087 -0.8008498 0
11.003335 -0.16425699 -0.5248003 0
13.148294 -0.17503965 2.3985608 0
8.6765146 -0.09498129 -0.76286328 0
13.685109 -0.15065271 1.5116661 0
12.123672 -0.099566258 2.8213058 0
10.997438 -0.089925073 -0.52524769 0
13.967791 -0.094684072 2.5304596 0
8.675808 -0.03549359 -0.76323402 0
14.359282 -0.062633216 1.5739757 0
7.2902851 -0.002699574 -0.76904261 0
54.850086 -0.32323924 1.3821253 0
12.412539 0.0084809382 2.8797162 0
53.539234 -0.19498098 0.11044353 0
6.4596953 0.031539168 -0.80661595 0
14.707698 0.02772354 -0.10774115 0
12.465874 0.066380128 2.5891745 0
11.025597 0.064228296 -0.5263021 0
13.229951 0.098837741 2.4115865 0
13.769258 0.13155638 3.8396719 0
14.898197 0.13549802 1.9710526 0
12.48181 0.15056145 3.1936283 0
14.705544 0.16236527 1.2614834 0
12.320334 0.18074593 2.8589389 0
15.700578 0.20334603 -0.13697261 0
5.763586 0.11705194 -0.82993746 0
9.4338503 0.17307177 -0.63192344 0
14.516397 0.26945564 1.9264376 0
8.6932373 0.18283291 -0.76963377 0
14.259969 0.28826112 1.5621419 0
12.660169 0.29683667 3.2371693 0
14.843533 0.33281779 1.2700063 0
7.3329763 0.19596964 -0.77539146 0
14.794794 0.36392638 0.22993942 0
6.4928093 0.19535939 -0.81272078 0
15.693047 0.41669545 -0.13824162 0
12.346987 0.37709561 2.562654 0
14.862886 0.4315764 -0.11569235 0
12.361702 0.40206659 2.5674646 0
14.797483 0.46553904 -0.11569151 0
12.461398 0.43318132 2.5869617 0
14.772078 0.49998447 -0.11581936 0
12.30602 0.4558394 2.5573211 0
14.771671 0.53473097 -0.11602718 0
12.335675 0.48599499 2.5620456 0
14.771326 0.56447929 -0.11619633 0
12.40536 0.51670843 2.5766413 0
15.600554 0.62902278 -0.1392169 0
12.605038 0.55413133 2.6107829 0
11.250545 0.49338502 -0.54959416 0
13.528852 0.61855114 2.4575155 0
8.730504 0.42122066 -0.7761724 0
15.395143 0.72960442 1.6659 0
7.3558941 0.37953964 -0.781551 0
12.444717 0.62864953 -0.34418741 0
5.7962623 0.32530063 -0.8362726 0
9.5398941 0.5164035 -0.64429414 0
14.596301 0.79396272 2.283088 0
14.035226 0.80200374 3.559804 0
16.33223 0.91580367 -0.15822563 0
13.157688 0.78484046 2.7176762 0
13.085378 0.81092358 3.6627877 0
13.914165 0.85678476 1.8548787 0
13.382978 0.85979092 3.0815332 0
11.217916 0.72621727 -0.54585266 0
13.385654 0.88441205 2.4364295 0
14.173387 0.96755767 3.5934143 0
16.405071 1.1053276 -0.1595493 0
13.960873 0.98423511 2.8639758 0
13.518644 0.99063194 3.7753735 0
14.552112 1.0586618 1.9316891 0
13.086254 0.98954469 3.0217383 0
12.591083 0.94789881 -0.35648748 0
5.8146429 0.47402832 -0.84218633 0
13.507602 1.0797091 3.7749071 0
14.161161 1.1279287 1.8875444 0
7.4182506 0.61807489 -0.79311526 0
16.682268 1.3519044 -0.17183778 0
14.483483 1.2195671 2.9609663 0
9.6613703 0.83019608 -0.66147268 0
13.251559 1.1480464 2.1003516 0
14.174991 1.2601708 3.5967479 0
14.392468 1.2747287 1.235963 0
14.427393 1.3130566 2.9556246 0
9.6905947 0.89995879 -0.66695797 0
14.317809 1.3358178 1.5658685 0
14.531593 1.3888886 2.9748681 0
8.8256178 0.86354297 -0.78898478 0
12.767686 1.2526855 -0.36875984 0
14.228899 1.424015 2.2356901 0
6.5174475 0.68592727 -0.82561004 0
12.757036 1.3121176 -0.36905703 0
13.94831 1.4649274 2.1963565 0
14.115975 1.5146711 3.2405133 0
12.771389 1.3718407 -0.36942974 0
14.548269 1.5896218 2.6287661 0
14.226308 1.5882077 3.6147749 0
55.351303 5.984767 1.358673 0
5.8174076 0.68690753 -0.84836745 0
4.8201466 0.58918095 -0.30960795 0
14.404136 1.6693203 1.5737728 0
7.4602747 0.89604652 -0.80478084 0
55.452923 6.3840961 0.066122398 0
14.582445 1.7616074 2.9876666 0
9.8222971 1.2040077 -0.68404007 0
14.38305 1.7683036 1.5733032 0
14.451781 1.8143713 2.9628007 0
13.868943 1.7765867 3.5349021 0
55.79887 6.9390426 3.9921439 0
14.340131 1.8645877 2.5979552 0
14.341862 1.8997655 3.2977121 0
4.7953272 0.67544341 0.035024121 0
14.306322 1.9260993 1.5677058 0
6.550086 0.91415101 -0.83193707 0
4.8349981 0.70560998 0.029731482 0
14.241738 1.9822962 1.9026331 0
14.140574 2.0060766 3.2577994 0
4.7652769 0.71543479 0.14991733 0
14.494699 2.0823681 1.5862809 0
6.5544753 0.97359681 -0.83725739 0
4.7447448 0.73410577 0.0348849 0
14.528911 2.1572769 1.5907735 0
14.188128 2.1381021 2.9219568 0
4.653338 0.74463928 -0.39988962 0
4.6738863 0.75635517 -0.18000492 0
4.6794343 0.76789653 0.039925233 0
4.6447191 0.77317703 0.15001561 0
4.6848841 0.7893064 0.25980803 0
4.6298485 0.7935558 0.25996175 0
4.6197534 0.8033154 0.25994417 0
4.694859 0.82483268 0.36959729 0
4.8348756 0.85715473 0.48898411 0
4.9249525 0.88390774 0.6085577 0
5.8388891 1.0386417 -0.86026049 0
14.024505 2.4731817 2.9007773 0
6.5673118 1.1917239 -0.84341645 0
4.4475842 0.83604699 -0.37467209 0
4.4527941 0.84674096 -0.26973876 0
4.452702 0.85661936 -0.26978728 0
4.4525533 0.87149793 -0.26987162 0
4.4375186 0.8762089 -0.26983961 0
4.4324274 0.88603163 -0.26987293 0
4.4373355 0.89596623 -0.26993564 0
4.4419436 0.90514481 -0.37499455 0
6.570971 1.3304439 -0.84912777 0
6.5708318 1.3452997 -0.84920001 0
4.4066753 0.934394 -0.37503412 0
4.3717127 0.93392187 -0.36990783 0
4.3516388 0.94361597 -0.36489668 0
4.3864775 0.95884824 -0.37008151 0
4.4212608 0.97907913 -0.37530133 0
4.6306305 1.0310632 -0.40624264 0
4.9546604 1.1091678 -0.45769277 0
4.7301297 1.076812 -0.42180011 0
4.620368 1.0605849 -0.40634891 0
4.1113873 0.95964569 -0.43417218 0
4.0813699 0.96423584 -0.4290975 0
4.0563526 0.96888167 -0.42403749 0
4.1061234 0.98924321 -0.43429926 0
4.0063186 0.97817487 -0.41391763 0
4.0311608 0.99329799 -0.41907182 0
4.0211287 0.99807477 -0.41905507 0
4.0359716 1.0130881 -0.42417988 0
4.0059562 1.0176816 -0.4191055 0
3.9959383 1.0224935 -0.4140887 0
4.1201687 1.0628614 -0.53969896 0
4.1101384 1.0676383 -0.5396812 0
4.1549149 1.0879385 -0.54992402 0
4.2544971 1.1237652 -0.57042778 0
3.9157598 1.0511237 -0.40395251 0
5.2809477 1.4082564 -0.77521074 0
3.9305749 1.0710238 -0.40908715 0
4.1899376 1.1491253 -0.3503224 0
4.4343982 1.2221622 -0.2764779 0
3.9153898 1.0955561 -0.40414706 0
3.8804295 1.0951017 -0.3990247 0
3.9002767 1.1101683 -0.40416083 0
3.8852475 1.1148944 -0.4041293 0
3.8801782 1.1247621 -0.39916041 0
3.8502042 1.1243265 -0.39905182 0
4.064889 1.2025236 -0.23512599 0
3.9055574 1.1714928 -0.11945051 0
3.9104741 1.1814303 -0.11950865 0
3.9159088 1.1926677 0.070428133 0
3.876193 1.1927752 0.16556162 0
3.8462176 1.19234 0.1656695 0
3.8411875 1.1971701 0.16567352 0
3.8560507 1.2122113 0.16555414 0
3.8260756 1.2117774 0.16566177 0
3.7591467 1.2664226 -0.38935372 0
3.897944 1.3614811 -0.51524472 0
4.1407433 1.4630197 0.87351823 0
4.1655717 1.4831847 0.87834442 0
3.8927152 1.3910897 -0.51535308 0
3.9125726 1.4061515 -0.52048111 0
3.763202 1.3850993 -0.39486781 0
5.6179008 2.3432772 -0.89531934 0
3.6387861 1.691228 0.629444 0
5.5564299 2.5555513 -0.90088677 0
3.6324396 1.8185186 0.44901061 0
3.6522746 1.8385947 0.44886458 0
5.5190477 2.7630193 0.67855859 0
3.8415334 1.9508697 0.55776107 0
3.8215661 1.950555 0.55784225 0
3.8364036 1.9705786 0.55771142 0
3.8512418 1.9906018 0.55758107 0
3.8213232 1.9851944 0.5577175 0
5.478931 2.8376703 0.823452 0
4.0409589 2.1191449 0.89642441 0
3.8979673 2.0487943 -0.56782591 0
3.8830047 2.0485396 -0.56775737 0
3.8530543 2.0481737 -0.56265175 0
3.8629348 2.0631266 -0.56773698 0
3.8578882 2.0729983 -0.56275451 0
3.8230338 2.0625858 -0.5575757 0
3.7038538 2.0121024 -0.43194607 0
3.703795 2.0219898 -0.43197599 0
3.7534246 2.06229 -0.4423115 0
3.8031027 2.0975893 -0.45261577 0
3.7880929 2.1023364 -0.4525778 0
3.783035 2.1121778 -0.45259467 0
3.7680848 2.1119561 -0.4475266 0
3.7826688 2.1313202 -0.55765033 0
3.9494474 2.2444565 0.57135469 0
3.6993918 2.1188996 0.057728663 0
3.6889162 2.1225188 -0.13724178 0
3.7880189 2.1926458 -0.25287053 0
3.8175607 2.2171497 -0.36305788 0
3.7374198 2.1851265 -0.55764842 0
4.053668 2.3852901 0.6904965 0
3.7339895 2.2140162 0.15729564 0
3.9668446 2.3641036 -0.17412272 0
3.7773373 2.2661357 -0.35806444 0
3.8960657 2.3457026 -0.5987891 0
3.7535217 2.2836218 0.15699419 0
3.9068232 2.3880036 -0.16895667 0
3.891315 2.3914804 -0.38391188 0
3.9205539 2.4203115 -0.60912073 0
4.1221929 2.5640016 0.59465647 0
3.8525374 2.4138043 0.15119198 0
3.827379 2.4078441 0.046316639 0
3.8421888 2.432864 0.046169043 0
3.8570449 2.4528837 0.046051085 0
3.8718448 2.4778738 0.040904552 0
3.8817475 2.4928479 0.040828377 0
3.9164679 2.5280471 0.040577531 0
4.244235 2.7451196 -0.096407056 0
4.2391429 2.7599537 -0.09644407 0
4.2539945 2.7799373 -0.10155579 0
4.6363091 3.0423453 -0.2639164 0
4.6213126 3.0470872 -0.2638683 0
4.0293059 2.6757135 -0.42033371 0
4.0236797 2.6891983 -0.65536726 0
4.2648478 2.8677287 0.4931525 0
4.2448468 2.8724253 0.49320942 0
4.2448006 2.8823004 0.49319139 0
4.2695303 2.917397 0.492973 0
4.2843952 2.9374046 0.49286395 0
4.2892609 2.9573233 0.49277836 0
4.0249395 2.7928288 0.13934511 0
4.0792789 2.8425395 0.023974806 0
4.0588078 2.8409362 -0.2059367 0
5.8710713 4.1078129 -0.93216836 0
4.4729791 3.1689832 0.63140881 0
4.1280379 2.9460249 -0.21653494 0
5.8407998 4.1670132 -0.93221831 0
4.412714 3.1872396 0.50660443 0
4.1972795 3.0511072 -0.22712436 0
5.8105226 4.2261891 -0.9372654 0
4.222693 3.1129844 0.13259903 0
4.2907834 3.1749468 -0.49786827 0
4.5065308 3.3621974 0.51071477 0
4.2866845 3.217334 0.0020373762 0
5.0446353 3.7985995 -0.93782747 0
4.3206267 3.2908564 -0.25332406 0
4.4639845 3.4154296 -0.53428841 0
4.9995751 3.83272 -0.93772233 0
4.4801373 3.4688051 0.12052625 0
4.4496598 3.461967 -0.14433056 0
6.6881051 5.2066555 -0.9537214 0
4.9742699 3.9018624 -0.94280088 0
4.8485217 3.8343747 0.67796576 0
4.4696841 3.557971 0.1203271 0
4.5034423 3.6059337 -0.28496882 0
6.6922774 5.3557758 -0.96414649 0
4.9190464 3.9706638 -0.94275999 0
4.5477958 3.7057688 -0.29542264 0
6.6768188 5.445014 -0.97432613 0
6.6617742 5.459744 -0.97430575 0
4.9036756 4.0498991 -0.94790435 0
4.6174641 3.847162 -0.031092703 0
4.6322279 3.8821607 -0.031263977 0
4.622539 3.8877029 0.1087772 0
4.6618729 3.9371314 -0.036524385 0
4.6865973 3.9772122 -0.036741853 0
4.7215748 4.0231223 0.10299121 0
19.223146 16.288012 3.687387 0
5.5335121 4.7341633 -0.95246518 0
4.7899418 4.1211014 -0.33758095 0
4.740871 4.0921302 -0.042268157 0
4.7758188 4.1430593 0.1024415 0
19.326935 16.688263 1.9358233 0
19.255865 16.696785 3.7261574 0
19.72863 17.179098 4.4378452 0
19.842512 17.349867 4.4719167 0
5.4831038 4.8428178 -0.95752513 0
5.478056 4.8576446 -0.95753229 0
4.9380388 4.4061561 -0.36897746 0
4.9237432 4.4075351 -0.058897108 0
6.8002658 6.0982304 0.023443252 0
18.987339 16.995945 2.5265455 0
19.733023 17.740438 3.2413452 0
18.671244 16.863716 3.6833119 0
19.158791 17.376026 4.3898625 0
19.288601 17.57053 5.0535955 0
5.0124478 4.6124291 -0.069821268 0
20.564968 18.838116 0.78477263 0
19.785545 18.194345 3.2799549 0
5.3826537 4.9955635 -0.96246159 0
5.3726087 5.0103555 -0.9624579 0
5.5663409 5.2124844 -0.82883215 0
5.1604466 4.8570461 -0.25110754 0
5.0823631 4.794651 0.40443927 0
20.127314 18.929157 4.0165834 0
5.3374305 5.0695662 -0.96245158 0
5.2689342 5.0266037 -0.43202487 0
5.0370073 4.8230686 0.24455371 0
18.670107 17.812048 3.1608815 0
18.463741 17.686111 4.3471656 0
19.11974 18.395386 5.1372418 0
5.2724175 5.1184144 -0.96226799 0
5.4561706 5.3204331 -0.82860041 0
5.4468865 5.3320551 -0.46857277 0
18.306988 17.878321 1.342288 0
4.5674944 4.5024581 -0.95755959 0
5.6946745 5.6235733 -0.50541675 0
5.4869442 5.4437418 -0.11902389 0
18.819435 18.617851 2.6131845 0
19.388716 19.257133 4.624084 0
5.6042809 5.6106238 -0.86998034 0
5.6991282 5.7330446 -0.5107125 0
6.1409092 6.1920748 -0.37381962 0
5.7493167 5.825016 -0.14113188 0
6.2637482 6.3805761 -0.80986512 0
5.8565602 5.9966116 -0.93707573 0
5.8316493 5.9962845 -0.93695569 0
6.2088027 6.4097552 -0.80468082 0
5.8016415 6.0208106 -0.93188012 0
5.102016 5.3250575 -0.96699476 0
18.573845 19.388449 3.9124675 0
18.414591 19.316788 3.8933513 0
10.364434 10.960846 -0.84971786 0
5.6867986 6.0691566 -0.9264791 0
18.007374 19.243004 1.9903573 0
10.308962 11.099628 -0.85478735 0
5.6268139 6.1131711 -0.92629969 0
16.601305 18.086535 -0.9854871 0
6.0432267 6.6515036 -0.81450307 0
4.3121643 4.7774596 -0.96203053 0
7.1784925 7.9949188 -0.7729336 0
4.8969831 5.4965577 -0.96145058 0
10.316532 11.617658 -0.88103271 0
5.457047 6.2006145 -0.92070234 0
16.924574 19.296019 -1.0398406 0
5.9377608 6.839323 -0.81944764 0
4.2120733 4.8855767 -0.96181524 0
7.0975161 8.2727289 -0.78820038 0
4.177073 4.9149799 -0.96172512 0
7.072228 8.3570681 -0.79327607 0
7.0274296 8.346611 -0.78805077 0
7.0124393 8.3613472 -0.78799808 0
7.0271058 8.4212828 -0.7932148 0
5.7976384 6.9869146 -0.82411563 0
5.227386 6.327179 -0.9098959 0
5.6140308 6.8304453 -0.79289126 0
5.5796218 6.8160429 -0.58268273 0
5.5749459 6.8368325 -0.37769344 0
6.956707 8.569828 -0.80322003 0
6.9020548 8.5393057 -0.79788423 0
5.7966709 7.2108822 -0.84461331 0
5.1075349 6.3954554 -0.90450478 0
4.6216669 5.8164945 -0.97087657 0
4.0269156 5.0970583 -0.97141337 0
6.8861747 8.7582598 -0.80830121 0
3.9919291 5.1264806 -0.97131896 0
4.9927588 6.4537663 -0.90407491 0
6.7911391 8.8468237 -0.81305909 0
3.9469149 5.1805911 -0.97620523 0
4.907918 6.4975748 -0.89877212 0
6.7506905 8.9957848 -0.81818187 0
4.4566197 5.9886436 -0.98046935 0
6.675858 9.0248213 -0.81789029 0
3.8569427 5.2640905 -0.97597146 0
5.4370337 7.4655924 -0.83846247 0
10.537742 14.555065 -1.0587717 0
4.3665528 6.097074 -0.98527801 0
5.3521509 7.5243616 -0.83817649 0
34.15469 48.187656 0.007831037 0
4.6534414 6.6388974 -0.89283097 0
6.3220153 9.0955763 -0.80133367 0
3.7120726 5.3916764 -0.98054469 0
4.5686498 6.6777267 -0.89250302 0
6.459693 9.5206366 -0.84293544 0
4.2066936 6.2444839 -0.98979843 0
13.533193 20.15 1.8644952 0
4.9689803 7.4801116 -0.80621457 0
10.136008 15.358585 -1.0886045 0
4.1168842 6.2982287 -0.98448229 0
5.1365128 7.9153814 -0.86296308 0
9.9662495 15.476521 -1.0880245 0
4.0470047 6.3471889 -0.9892447 0
5.2197566 8.2551403 -0.90412724 0
9.7668467 15.544302 -1.082178 0
3.9672487 6.381134 -0.9839251 0
5.1101875 8.2788134 -0.89861751 0
9.6712742 15.787706 -1.0972381 0
3.8874872 6.4150696 -0.98360634 0
5.2527294 8.7338905 -0.95531154 0
9.5361376 15.970909 -1.1019688 0
4.1047263 6.9413438 -0.885795 0
4.6572027 7.9187202 1.3094659 0
4.7195253 8.0845947 0.23875591 0
5.428339 9.3231239 1.237646 0
4.0399342 6.9704828 -0.88552654 0
4.6838379 8.1173315 -0.19616053 0
4.6752529 8.1307001 0.6738897 0
3.2432511 5.6697879 -0.97381473 0
4.6182365 8.0840178 -0.84576201 0
4.598599 8.0996695 -0.62571073 0
4.5988579 8.1304226 -0.41075143 0
4.7625437 8.4630575 0.012731284 0
4.6493936 8.2990122 0.45866144 0
4.4627094 8.0011091 1.3052484 0
3.6480751 6.5717216 -0.98273599 0
4.5085163 8.1476164 -0.84535205 0
4.5040512 8.1892176 -0.41042575 0
4.6578774 8.5017633 0.013169348 0
4.678216 8.5785646 0.46292055 0
4.3729272 8.04988 1.3055973 0
3.5782416 6.6207614 -0.98249054 0
4.4137812 8.1964417 -0.84498847 0
4.4143119 8.2380581 -0.41006824 0
4.5532131 8.5404854 0.013605148 0
4.4747491 8.4216356 0.4592858 0
4.2831507 8.0986614 1.3059471 0
3.5034761 6.6597791 -0.98219621 0
4.3240218 8.250309 -0.8446517 0
4.3195815 8.2868757 -0.40970054 0
4.4634027 8.6043091 0.013921201 0
4.4343495 8.5807705 0.46414745 0
4.1883826 8.1474218 1.306307 0
3.4287176 6.6988049 -0.98189998 0
4.2293324 8.2941561 -0.84426522 0
4.2298546 8.3357391 -0.40934142 0
4.2099099 8.3455009 -0.4092665 0
4.1745014 8.3234844 -0.84404933 0
3.3539243 6.7428231 -0.98662424 0
4.0636849 8.2207594 1.3067781 0
4.1201606 8.3993788 -0.40892604 0
4.079792 8.3723497 -0.84368145 0
3.2841163 6.7918968 -0.98637235 0
3.9689624 8.2645483 1.3071591 0
4.0204797 8.4432058 -0.40852937 0
3.9851151 8.4162302 -0.84329569 0
3.2143054 6.8409634 -0.99112022 0
2.7746408 5.9532819 -0.98205614 0
3.8642719 8.3231859 1.3125788 0
3.913156 8.4825964 1.1119891 0
4.5143881 9.8486738 0.48607904 0
3.8660131 8.511385 -0.40789524 0
3.8408477 8.5053053 -0.62775505 0
3.8156617 8.5042486 -0.84263384 0
3.2872493 7.3759007 -0.88260329 0
3.2673259 7.3806844 -0.88252068 0
3.7861633 8.5853434 -0.41263995 0
4.3700972 9.9478855 0.74159437 0
3.0349195 6.9387345 -0.99041677 0
3.7413733 8.5898628 -0.4124262 0
4.3005638 9.9122295 0.74201655 0
3.7037957 8.5850153 1.1128231 0
3.6838522 8.594779 1.1128986 0
2.5852656 6.0707722 -0.98633873 0
3.6462188 8.5922899 -0.84697175 0
3.6822245 8.7063551 0.24265578 0
4.6173692 10.948624 2.1783009 0
3.6317525 8.6485729 -0.41198477 0
3.6334519 8.6932211 0.89794421 0
2.545336 6.1201591 -0.99122524 0
4.449501 10.749266 2.6994691 0
2.8854141 7.0268984 -0.99485111 0
2.8704603 7.0367184 -0.99479806 0
3.4604535 8.5431509 1.3191421 0
3.4355612 8.5428715 1.3142592 0
2.4606841 6.1541386 -0.99087524 0
3.4006791 8.5624342 1.314401 0
21.827042 55.160671 4.1988516 0
7.5927072 19.381498 -1.2544957 0
21.687391 55.579372 1.4385974 0
5.2648644 13.648655 -1.1407527 0
2.7111015 7.1048861 -0.99414384 0
2.6961775 7.1097112 -0.99407279 0
2.6762807 7.109509 -0.99397743 0
2.32618 6.2274837 -0.99535775 0
20.672205 55.611309 1.4335212 0
5.0753078 13.806734 -1.1451415 0
2.7889898 7.6550183 -0.89067578 0
19.981224 55.312031 -2.6774585 0
2.7391548 7.6844459 -0.89549184 0
2.2117636 6.2561784 -0.98982859 0
19.403954 55.151012 4.1509686 0
3.5952053 10.363171 -1.0404387 0
19.084581 55.4333 4.161974 0
6.6225386 19.458349 -1.2298096 0
4.7461276 14.078474 -1.1590633 0
2.4025409 7.201488 -0.99277902 0
6.4827232 19.622015 -1.2394466 0
3.4158707 10.456381 -1.0447379 0
2.337831 7.2257924 -0.99250519 0
6.3378468 19.800688 -1.2441243 0
4.5266623 14.271359 -1.1683668 0
3.3111854 10.535315 -1.0493777 0
17.677238 56.721737 4.2212477 0
3.2464244 10.574681 -1.0491309 0
17.723682 58.225948 5.7428713 0
4.3321152 14.449529 -1.1777717 0
2.1586831 7.2839088 -0.9917239 0
16.682543 56.669342 4.2063203 0
4.2126026 14.508461 -1.1822796 0
2.4724381 8.6151075 -1.0061076 0
5.8868427 20.791172 -1.3039702 0
2.417701 8.6345491 -1.0108637 0
4.0380754 14.651914 -1.1867205 0
5.6086998 20.699175 -1.2923921 0
16.10051 60.148262 5.8768477 0
1.9297705 7.3615837 -0.99074459 0
1.8998566 7.3862567 -0.99565029 0
3.6359344 14.478962 -1.1593684 0
3.472729 14.232945 -1.1330293 0
2.069273 8.7662697 -1.0144224 0
2.0095763 8.780735 -1.0141584 0
-2.011709 7.6598659 -1.0287921 0
-2.4591906 9.1288872 -1.0552062 0
-1.8391203 6.6299992 -1.0222878 0
-1.9037409 6.6347375 -1.0270633 0
-2.6331005 9.0983572 -1.0595422 0
-2.7374113 9.0730553 -1.0591291 0
-2.309716 7.5938025 -1.0276039 0
-12.664403 41.186974 4.2601709 0
-12.748827 41.156895 4.26054 0
-13.294581 42.685734 8.6591129 0
-3.4298849 10.931773 -1.0705049 0
-15.1316 47.916283 -2.1100931 0
-11.720704 36.88549 15.350559 0
-14.081302 44.03027 4.5492682 0
-13.722004 42.686321 9.7655373 0
-3.5593636 10.986498 -1.080186 0
-4.0665512 12.4708 -0.95643866 0
-4.076263 12.400787 -0.94627166 0
-5.4274149 16.393656 -0.93971574 0
-4.1710992 12.510612 -0.96116436 0
-5.5220194 16.423523 -0.94447112 0
-14.737226 43.663704 3.462121 0
-2.2165327 6.5285478 -1.0257885 0
-3.0652022 8.97719 -1.0578303 0
-16.906679 49.230099 -2.1868727 0
