# .PCD v0.7 - Point Cloud Data file format
VERSION 0.7
FIELDS x y z intensity
SIZE 4 4 4 4
TYPE F F F F
COUNT 1 1 1 1
WIDTH 1380
HEIGHT 1
VIEWPOINT 0 0 0 1 0 0 0
POINTS 1380
DATA ascii
-9.644577 -7.1070542 0.22973388 0
-9.6240273 -7.1313615 0.2297748 0
-9.6078768 -7.1453705 -0.050183535 0
-9.6011772 -7.1796455 -0.33020303 0
-7.6791983 -5.7513804 -0.43695804 0
-6.257328 -4.6970444 -0.49086109 0
-5.3404465 -4.0166731 -0.53692627 0
-4.6296964 -3.4820242 -0.56886327 0
-4.1099224 -3.0976622 -0.59663212 0
-3.697917 -2.7962804 -0.62486744 0
-9.5818949 -7.4389324 0.22958557 0
-7.4732065 -5.8150311 -0.42629758 0
-4.5587144 -3.5298939 -0.56364465 0
-9.4446297 -7.4738493 -0.33496043 0
-5.1794362 -4.076827 -0.52638662 0
-3.626941 -2.8442297 -0.61962807 0
-5.9808846 -4.7886434 -0.47493973 0
-4.4580965 -3.5669503 -0.55329633 0
-3.5914676 -2.868216 -0.61450744 0
-7.1873112 -5.8863401 -0.41032282 0
-5.0437069 -4.1228142 -0.51592147 0
-3.5511169 -2.8870683 -0.61436403 0
-5.8152776 -4.8337092 -0.46436986 0
-3.8876505 -3.2162087 -0.58088005 0
-8.9141979 -7.5576925 -0.31312659 0
-5.7349796 -4.8563271 -0.45909277 0
-4.3018603 -3.6373937 -0.54276133 0
-3.4994805 -2.9605801 -0.61422205 0
-25.73168 -22.48786 0.95198858 0
-18.501944 -16.235519 -0.38099536 0
-8.6839066 -7.6007113 -0.30733231 0
-5.6044164 -4.89745 -0.45364204 0
-4.2209811 -3.6850436 -0.5374912 0
-3.4094596 -2.9730957 -0.60387933 0
-8.508996 -7.6204863 -0.30171707 0
-5.504086 -4.9245152 -0.44829467 0
-4.1506548 -3.7080429 -0.5322423 0
-3.3540595 -2.9965732 -0.59868431 0
-8.3536882 -7.6558175 -0.29618654 0
-5.4137559 -4.9518652 -0.44297937 0
-4.095047 -3.7414415 -0.53205514 0
-3.3086588 -3.0203257 -0.59352088 0
-8.1790504 -7.6656623 -0.29055867 0
-5.3232994 -4.984231 -0.43767133 0
-4.0345945 -3.7697287 -0.52684522 0
-3.2533994 -3.0388255 -0.58831882 0
-8.0240173 -7.6910586 -0.28501526 0
-5.2428474 -5.0168753 -0.43239447 0
-3.9740024 -3.8030179 -0.52664208 0
-3.2030096 -3.0624657 -0.5831399 0
-7.8641214 -7.7113562 -0.27944991 0
-5.1476684 -5.0391469 -0.42705676 0
-3.9086952 -3.8261991 -0.52140927 0
-3.1819317 -3.1118743 -0.58808959 0
-14.789425 -14.918697 -0.28643093 0
-6.0759101 -6.103519 -0.36142406 0
-5.0373244 -5.0709987 -0.4216716 0
-3.8381963 -3.8592384 -0.51616216 0
-3.1216063 -3.1352637 -0.58286738 0
-7.6609168 -7.8821731 1.2661552 0
-7.6211843 -7.8760328 1.261307 0
-7.5863352 -7.8750296 1.2614361 0
-7.5513415 -7.8790188 1.2565582 0
-7.5213618 -7.8831458 1.2566646 0
-7.5012498 -7.8925304 1.2567329 0
-7.4760137 -7.9067831 1.2568103 0
-3.0458722 -3.1782608 -0.57760334 0
-3.7174573 -3.9109178 -0.51073563 0
-4.8316512 -5.1351671 -0.4109495 0
-7.1720362 -7.6964788 -0.25689402 0
-7.1323304 -7.690372 -0.25174317 0
-7.0927377 -7.6792612 -0.25158539 0
-7.0530162 -7.6731496 -0.25143465 0
-4.7513428 -5.1628985 -0.41066709 0
-3.6319177 -3.9485974 -0.50543642 0
-2.9603322 -3.2160225 -0.57228982 0
-6.8595614 -7.6377602 -0.24069044 0
-5.5557694 -6.198709 -0.33957013 0
-4.0530448 -4.5145125 -0.46248767 0
-3.196923 -3.5621984 -0.53846061 0
-2.9194965 -3.2599614 -0.57215762 0
-11.92218 -13.718309 -0.20992893 0
-5.4160943 -6.2098165 -0.33405617 0
-4.5557089 -5.2274566 -0.39997783 0
-3.4959669 -4.0149403 -0.49995884 0
-2.8543291 -3.27829 -0.56691384 0
-6.4816008 -7.6171713 -0.22926822 0
-5.3007832 -6.2465811 -0.32865426 0
-4.4554052 -5.259706 -0.39462581 0
-3.8723385 -4.5796151 -0.45184585 0
-3.4058378 -4.03756 -0.49462381 0
-3.0607526 -3.638644 -0.53298116 0
-2.7788787 -3.3113675 -0.56663609 0
-19.791685 -24.338043 0.17618713 0
-10.786521 -13.286813 -0.18038657 0
-6.2024469 -7.6343961 -0.21824637 0
-5.0860734 -6.2756681 -0.32287082 0
-4.2901111 -5.3052149 -0.38903424 0
-3.7319071 -4.6258688 -0.44634286 0
-3.2852952 -4.0844097 -0.48919192 0
-2.9649999 -3.6911891 -0.5276401 0
-2.6883125 -3.3540981 -0.56130254 0
-18.891085 -24.332064 0.17942272 0
-10.109868 -13.043208 -0.16268685 0
-5.9285326 -7.6418509 -0.21222976 0
-4.8813887 -6.3050952 -0.31212011 0
-4.1200876 -5.3406658 -0.38341448 0
-3.5868669 -4.6570573 -0.44080541 0
-3.1698925 -4.1264324 -0.48376951 0
-2.8596442 -3.7285273 -0.52224803 0
-2.5928888 -3.3917415 -0.55594718 0
-18.054224 -24.378035 0.18237987 0
-9.4293642 -12.749761 -0.14491931 0
-5.6692605 -7.6647863 -0.20128262 0
-4.6960754 -6.3600826 -0.30646607 0
-3.9648256 -5.3865514 -0.37785563 0
-3.4514668 -4.7035451 -0.43531945 0
-3.054384 -4.1734986 -0.47835389 0
-2.754178 -3.7709053 -0.51686347 0
-2.5023532 -3.4345436 -0.55061436 0
-17.276497 -24.4608 0.18509641 0
-8.7354717 -12.38623 -0.12702879 0
-5.4201012 -7.683064 -0.19536245 0
-4.4962792 -6.3947797 -0.30074081 0
-3.8000906 -5.4122648 -0.3672407 0
-3.3212056 -4.7452102 -0.42984298 0
-2.9391382 -4.2106133 -0.47292563 0
-2.6537282 -3.8134463 -0.5114944 0
-2.4168341 -3.4775035 -0.54529679 0
-16.51367 -24.549236 0.18775153 0
-8.1394539 -12.105387 -0.10956693 0
-5.1758261 -7.7065592 -0.18946689 0
-4.3016167 -6.4246778 -0.29502597 0
-3.6449821 -5.4532747 -0.36167744 0
-3.1909606 -4.7869253 -0.42436716 0
-2.8239074 -4.2477722 -0.46749792 0
-2.5532796 -3.85602 -0.51112556 0
-2.3263183 -3.5203683 -0.54496408 0
-15.804655 -24.689289 0.19016626 0
-7.4283381 -11.61694 -0.086486518 0
-4.9125304 -7.6896782 -0.18346131 0
-4.1024656 -6.4345446 -0.28427187 0
-3.4948876 -5.4944663 -0.35613063 0
-3.0462339 -4.808342 -0.41382048 0
-2.7085698 -4.2899747 -0.46207741 0
-2.6985228 -4.294733 -0.46204063 0
-2.6885962 -4.2944927 -0.46199736 0
-2.6735511 -4.2991309 -0.46194533 0
-2.9764173 -4.8166256 -0.41355208 0
-2.9711392 -4.8314962 -0.41354266 0
-2.6386685 -4.3032999 -0.45680687 0
-2.3831558 -3.9019992 -0.50047767 0
-2.1759503 -3.5718935 -0.53939211 0
-14.744802 -24.979744 0.19370455 0
-6.6258817 -11.226111 -0.06814009 0
-4.5392632 -7.7050424 -0.17206115 0
-3.8079317 -6.4870634 -0.27819237 0
-3.2402892 -5.5381389 -0.35018405 0
-2.8314116 -4.8531137 -0.40801314 0
-2.5284574 -4.3406882 -0.45639613 0
-2.287744 -3.9447956 -0.50012529 0
-2.0808468 -3.5997434 -0.53402579 0
-14.099849 -25.167034 0.19584936 0
-6.1583214 -10.994161 -0.056183457 0
-4.3104777 -7.7092423 -0.16619602 0
-3.633302 -6.5177064 -0.27254507 0
-3.1003473 -5.5747228 -0.34466419 0
-2.7160935 -4.9003692 -0.40259251 0
-2.4037673 -4.3577847 -0.44591513 0
-2.1827209 -3.9724042 -0.49472377 0
-1.9906349 -3.6327469 -0.52868152 0
-13.41211 -25.263538 0.19824126 0
-5.7204232 -10.773097 -0.04434219 0
-4.0962176 -7.7338786 -0.16040471 0
-3.4634485 -6.5585318 -0.26692703 0
-2.9456587 -5.6010122 -0.33908722 0
-2.5718577 -4.9019785 -0.39702478 0
-2.3079767 -4.4205995 -0.45058253 0
-2.0778253 -3.9950547 -0.48931673 0
-1.8957877 -3.6506727 -0.52330375 0
-12.170364 -24.242079 0.20376211 0
-5.3118505 -10.577896 -0.032633394 0
-3.8820853 -7.7535996 -0.15460914 0
-3.2839448 -6.5841885 -0.26626167 0
-2.8057411 -5.6377087 -0.33356979 0
-2.4515686 -4.9492135 -0.39159063 0
-2.1930585 -4.4480104 -0.44514593 0
-1.9825723 -4.032968 -0.4889594 0
-1.7959489 -3.6685197 -0.51791167 0
-11.046683 -23.28886 0.20880055 0
-4.9519024 -10.438989 -0.026153296 0
-3.6586573 -7.7431808 -0.14874852 0
-3.1096985 -6.60004 -0.26060042 0
-2.6609418 -5.6693392 -0.33303168 0
-2.3267441 -4.9763784 -0.39111736 0
-2.0782645 -4.4704671 -0.43970427 0
-1.8874644 -4.0659266 -0.4835963 0
-1.7058841 -3.6966329 -0.51256299 0
-9.830575 -21.988882 0.21452643 0
-4.5828338 -10.26001 -0.014602065 0
-3.4499762 -7.7431841 -0.14794853 0
-2.9352286 -6.625957 -0.25495341 0
-2.5161693 -5.7010326 -0.32749489 0
-2.2113574 -5.0288143 -0.3907055 0
-1.9683502 -4.498075 -0.43928447 0
-1.7827121 -4.0836968 -0.47818562 0
-1.6159277 -3.7197754 -0.51220894 0
-8.893075 -21.170853 0.2187576 0
-4.2287908 -10.07651 -0.0080986917 0
-3.2365396 -7.7331643 -0.14212406 0
-2.7659953 -6.6420579 -0.24931088 0
-2.3715076 -5.7277775 -0.32695314 0
-2.086462 -5.0610805 -0.38523969 0
-1.8633471 -4.5308442 -0.43388644 0
-1.6872574 -4.1317143 -0.48284176 0
-1.5257559 -3.7529511 -0.5118674 0
-1.5110601 -3.7426448 -0.5067991 0
-1.6528218 -4.1159964 -0.47768316 0
-1.6427805 -4.120791 -0.47764704 0
-1.4954408 -3.7773643 -0.51176119 0
-7.6317377 -19.905369 0.22464149 0
-3.7854114 -9.8910513 0.0037543774 0
-2.9390018 -7.7063136 -0.13095352 0
-2.5272326 -6.6566725 -0.2433897 0
-2.1770372 -5.7635093 -0.32120904 0
-1.9166783 -5.1024466 -0.38458982 0
-1.7036411 -4.5625019 -0.4332653 0
-1.5429168 -4.1437769 -0.47224978 0
-1.396309 -3.7653954 -0.50132799 0
-6.8613033 -19.182009 0.22822434 0
-3.5084541 -9.8296356 0.0048780143 0
-2.7402742 -7.7068324 -0.1301761 0
-2.3533006 -6.6578302 -0.24270454 0
-2.0324993 -5.7854052 -0.31565198 0
-1.7921218 -5.1198411 -0.37909755 0
-1.5987561 -4.5903807 -0.42785349 0
-1.4382857 -4.1566925 -0.4668273 0
-1.306145 -3.7986624 -0.50098014 0
-6.1826878 -18.591009 0.23133466 0
-3.2413743 -9.7735529 0.01095739 0
-2.5463386 -7.7175403 -0.12443051 0
-2.1891601 -6.6692786 -0.23706529 0
-1.8978416 -5.8125696 -0.31513366 0
-1.6673365 -5.1472745 -0.37861988 0
-1.4793248 -4.5979748 -0.42237601 0
-1.3432024 -4.1898565 -0.46646026 0
-1.2115438 -3.80686 -0.50058985 0
-5.5436282 -18.011143 0.23428483 0
-2.9840486 -9.727788 0.016987085 0
-2.3574984 -7.7234273 -0.12369883 0
-2.3328564 -7.7128911 -0.12359545 0
-2.9049091 -9.7110329 0.017303884 0
-5.2317829 -17.708967 0.23574071 0
-14.272096 -48.924763 1.3562169 0
-2.7468944 -9.3690891 1.3982542 0
-1.1317866 -3.8203924 -0.49526384 0
-1.2290875 -4.1826663 -0.46097752 0
-1.3396734 -4.6252499 -0.42182669 0
-1.4877969 -5.1836829 -0.37292489 0
-1.6588082 -5.8426476 -0.30921027 0
-1.875972 -6.6826658 -0.23084804 0
-2.1439221 -7.7238622 -0.11787507 0
-2.6434121 -9.6252899 0.018384099 0
-2.5988963 -9.5053673 0.94868505 0
-2.5617983 -9.4400702 1.403895 0
-1.2694598 -4.6589241 -0.42156956 0
-1.7963459 -6.6910233 -0.23054364 0
-4.4720201 -16.956703 0.23930219 0
-2.4960992 -9.4633942 1.1741189 0
-1.0268832 -3.8485045 -0.49484769 0
-1.229434 -4.6731696 -0.42641738 0
-1.2192969 -4.6829815 -0.42638651 0
-1.0891943 -4.220067 -0.46043923 0
-0.9873631 -3.8377888 -0.48967221 0
-4.0964494 -16.613298 0.24102832 0
-2.3422449 -9.5388117 0.024613112 0
-1.8855336 -7.7334652 -0.11688405 0
-1.6177642 -6.6823897 -0.22483554 0
-1.4052062 -5.8575845 -0.30822 0
-1.2437124 -5.2189431 -0.3719767 0
-1.2290152 -5.2086549 -0.37190804 0
-1.0949647 -4.6906528 -0.42089048 0
-1.0850432 -4.6904726 -0.42084852 0
-1.0702293 -4.6851873 -0.42078641 0
-1.0648814 -4.7051091 -0.42078158 0
-1.0549601 -4.7049298 -0.42073968 0
-0.93981493 -4.2373695 -0.45984116 0
-0.85255438 -3.8704381 -0.48914334 0
-6.0238695 -28.64204 0.90175331 0
-6.077589 -29.203243 0.91598535 0
-10.878317 -52.995457 1.4341964 0
-5.748745 -28.192406 2.2382255 0
-0.80786932 -3.8696747 -0.48895475 0
-0.79303879 -3.8643978 -0.48889419 0
-0.95079297 -4.6980243 -0.41531447 0
-1.0400474 -5.2201076 -0.36617014 0
-1.1565194 -5.8778043 -0.30226132 0
-1.1464101 -5.8876233 -0.3022292 0
-1.1316166 -5.8823409 -0.30216607 0
-1.1166137 -5.8870568 -0.30211398 0
-1.1019279 -5.8767772 -0.30204496 0
-1.0869246 -5.8814945 -0.30199304 0
-1.0769206 -5.8863168 -0.30195543 0
-1.0620227 -5.8860359 -0.30189797 0
-1.0470203 -5.8907542 -0.30184606 0
-1.0322267 -5.8854761 -0.30178311 0
-1.0221193 -5.895299 -0.30175117 0
-1.0071173 -5.9000192 -0.30169931 0
-0.99221957 -5.8997412 -0.30164203 0
-0.9773218 -5.8994641 -0.30158475 0
-0.96264583 -5.889195 -0.29651657 0
-0.95252502 -5.8990145 -0.30148467 0
-0.93762922 -5.8987393 -0.30142722 0
-0.92762679 -5.9035668 -0.3013899 0
-0.91272908 -5.9032917 -0.30133286 0
-0.89784557 -5.9030232 -0.29627582 0
-0.88305104 -5.8977509 -0.29621336 0
-0.8729316 -5.9075727 -0.30118158 0
-0.85815108 -5.902307 -0.29611918 0
-0.84325325 -5.9020352 -0.29606232 0
-0.82835495 -5.9017634 -0.29600552 0
-0.81335437 -5.9064913 -0.29595408 0
-0.80345559 -5.9063234 -0.29591158 0
-0.78855777 -5.9060535 -0.29585484 0
-0.77366209 -5.9057851 -0.29579785 0
-0.75866193 -5.9105153 -0.29574654 0
-0.74886543 -5.9053507 -0.29569879 0
-0.73386538 -5.9100819 -0.29564753 0
-0.71896768 -5.9098148 -0.29559097 0
-0.70886493 -5.9196482 -0.29555944 0
-0.69396734 -5.9193821 -0.29550293 0
-0.67927343 -5.9091187 -0.2954357 0
-0.6643756 -5.9088535 -0.29537931 0
-0.65437514 -5.9136901 -0.29534248 0
-0.63947749 -5.9134259 -0.29528609 0
-0.62447834 -5.9181619 -0.29523513 0
-0.60968405 -5.9129009 -0.2951732 0
-0.59958285 -5.9227376 -0.29514179 0
-0.58478642 -5.9174771 -0.29508027 0
-0.56988877 -5.9172158 -0.29502407 0
-0.55499113 -5.9169555 -0.29496798 0
-0.54509234 -5.9167962 -0.29492602 0
-0.53009391 -5.921535 -0.29487523 0
-0.51529646 -5.9162774 -0.29481402 0
-0.50039876 -5.916019 -0.29475799 0
-0.48540053 -5.9207597 -0.29470733 0
-0.47550187 -5.9206028 -0.29466555 0
-0.46070448 -5.9153471 -0.29460439 0
-0.44560844 -5.9250898 -0.29455879 0
-0.43580991 -5.9199347 -0.29451182 0
-0.42101216 -5.914681 -0.29445085 0
-0.4060145 -5.919425 -0.29440036 0
-0.39121661 -5.9141722 -0.29433939 0
-0.38131776 -5.9140186 -0.29429784 0
-0.36632031 -5.9187641 -0.29424748 0
-0.35132307 -5.923511 -0.29419711 0
-0.34142438 -5.9233584 -0.29415563 0
-0.3265267 -5.9231071 -0.29410008 0
-0.31162903 -5.9228559 -0.29404464 0
-0.29673132 -5.922606 -0.29398915 0
-0.28683466 -5.9224563 -0.29394755 0
-0.27183801 -5.927206 -0.29389736 0
-0.25703925 -5.921958 -0.29383686 0
-0.24224025 -5.9167109 -0.29377636 0
-0.23214409 -5.9265604 -0.29374549 0
-0.21714732 -5.9313121 -0.29369548 0
-0.20244671 -5.9210672 -0.29362997 0
-0.18745053 -5.9258204 -0.29358003 0
-0.17765014 -5.9206743 -0.29353371 0
-0.18648405 -6.7611446 -0.20945477 0
-0.19608784 -7.821691 -0.10561395 0
-0.29381782 -13.355092 0.25815231 0
-0.56241757 -29.1141 0.9154222 0
-0.51599717 -29.669764 2.3199999 0
-0.075977504 -3.9583507 -0.48606941 0
-0.06654413 -3.9332175 -0.48100528 0
-0.056607865 -3.9330742 -0.48096678 0
-0.04686664 -3.9229331 -0.48091802 0
-0.036735304 -3.9327888 -0.48088977 0
-0.03189538 -3.9277449 -0.48086008 0
-0.02195899 -3.927603 -0.48082164 0
-0.012119737 -3.9224625 -0.48077819 0
-0.0020861779 -3.9273205 -0.48074487 0
0.0079471953 -3.9321787 -0.48071155 0
0.017883522 -3.9320385 -0.48067322 0
0.022626005 -3.9219983 -0.48063847 0
0.032755878 -3.9318566 -0.48061028 0
0.042595647 -3.9267182 -0.48056695 0
0.052628901 -3.9315782 -0.48053381 0
0.062372491 -3.9214416 -0.48048553 0
0.072405338 -3.9263024 -0.48045239 0
0.077341482 -3.9262619 -0.48042783 0
0.087374061 -3.9311235 -0.48039475 0
0.096926428 -3.9109902 -0.48033658 0
0.10724685 -3.9308496 -0.48031852 0
0.11718326 -3.9307134 -0.48028043 0
0.12192916 -3.9206748 -0.48024622 0
0.13176887 -3.9155412 -0.480203 0
0.1418011 -3.9204049 -0.48017004 0
0.15173773 -3.92027 -0.48013207 0
0.1617697 -3.9251344 -0.48009911 0
0.171611 -3.9200013 -0.4800562 0
0.17654857 -3.9199626 -0.48003212 0
0.18648522 -3.9198291 -0.47999427 0
0.19661181 -3.9296942 -0.47996631 0
0.20635854 -3.9195631 -0.47991863 0
0.21638998 -3.9244297 -0.47988579 0
0.22132747 -3.9243922 -0.47986171 0
0.23098032 -3.9092634 -0.47980919 0
0.24091594 -3.9091332 -0.47977129 0
0.25094721 -3.9140012 -0.47973856 0
0.26097831 -3.9188697 -0.47970578 0
0.26572752 -3.9088356 -0.47967204 0
0.27566454 -3.9087057 -0.47963449 0
0.28560337 -3.9085755 -0.47959712 0
0.29544801 -3.9034472 -0.47955486 0
0.30566812 -3.9183156 -0.47953221 0
0.31023246 -3.8982842 -0.47948906 0
0.32602665 -3.9430494 -0.48448196 0
0.33048418 -3.9180245 -0.4794341 0
0.34032908 -3.9128976 -0.47939202 0
0.35026634 -3.9127717 -0.47935471 0
0.36020485 -3.9126449 -0.47931758 0
0.36505106 -3.9076126 -0.47928932 0
0.37441763 -3.8774967 -0.47422329 0
0.39049885 -3.9372573 -0.48423061 0
0.39495978 -3.9122341 -0.47918317 0
0.40489832 -3.9121089 -0.47914621 0
0.41483682 -3.9119842 -0.47910938 0
0.41959104 -3.9019542 -0.47907642 0
0.42982081 -3.9168227 -0.484054 0
0.43975925 -3.9166989 -0.48401722 0
0.44940722 -3.9015832 -0.47896615 0
0.45934477 -3.9014614 -0.47892925 0
0.50563598 -4.2507615 -0.44414607 0
0.51509458 -4.2256489 -0.43908533 0
0.53068417 -4.2604246 -0.44406834 0
0.54061633 -4.2603035 -0.44403145 0
0.54536587 -4.250277 -0.44399861 0
0.55529827 -4.2501569 -0.44396177 0
0.57022983 -4.2499456 -0.44391158 0
0.57507157 -4.2449183 -0.44388357 0
0.58500409 -4.2447991 -0.44384691 0
0.59474063 -4.2346873 -0.43880084 0
0.60486919 -4.2445621 -0.44377366 0
0.6147092 -4.2394466 -0.44373217 0
0.62464184 -4.2393289 -0.44369569 0
0.70235854 -4.6730924 -0.39890811 0
0.79187506 -5.2066612 -0.35418692 0
0.80179006 -5.2065473 -0.35414967 0
0.91839653 -5.8596668 -0.28947303 0
0.93320817 -5.854466 -0.2894173 0
0.94311136 -5.8543553 -0.28937963 0
0.95801365 -5.8541546 -0.28932866 0
1.1019421 -6.6418314 -0.20470881 0
1.2846495 -7.6438708 -0.095194995 0
1.5558549 -9.1244364 0.054086283 0
1.5756027 -9.1191597 0.054158047 0
2.1351137 -12.184869 0.26765704 0
3.6327395 -20.46983 0.74854803 0
3.6713824 -20.414242 0.74872786 0
10.850937 -59.655384 4.4895115 0
0.70709765 -3.8687122 -0.47796908 0
0.78320569 -4.2175021 -0.4430981 0
0.87052578 -4.6361146 -0.3982648 0
0.97960204 -5.1543612 -0.34847012 0
1.1163974 -5.8271503 -0.28875133 0
1.2906839 -6.6443205 -0.20407251 0
1.3053046 -6.6291327 -0.20400795 0
1.3202819 -6.6339417 -0.20396179 0
1.3350788 -6.6287546 -0.2039063 0
1.3499671 -6.6285658 -0.20385569 0
1.3649441 -6.6333766 -0.20380971 0
1.3795663 -6.6181912 -0.20374551 0
1.3944548 -6.6180038 -0.20369509 0
1.4091663 -6.6078186 -0.2036356 0
1.4241436 -6.6126318 -0.20358986 0
1.4441197 -6.6173573 -0.20353106 0
1.4590211 -6.6171675 -0.20848083 0
1.4738091 -6.6119881 -0.20342624 0
1.4886098 -6.6068048 -0.20337167 0
1.5035994 -6.6116161 -0.20832616 0
1.5234849 -6.6113472 -0.20826295 0
1.5333744 -6.6112528 -0.20822608 0
1.774846 -7.572351 -0.093497783 0
2.1508148 -9.081213 0.051062971 0
2.1704829 -9.0709572 0.051136434 0
2.1954122 -9.0756121 0.051209345 0
2.2151678 -9.0703573 0.051278144 0
2.2350109 -9.0701017 0.051342398 0
2.2546797 -9.0598488 0.051415488 0
2.274523 -9.0595951 0.051479563 0
2.2992785 -9.0542574 0.051560953 0
2.3190351 -9.0490055 0.051629305 0
2.3388753 -9.0487556 0.05169338 0
2.363718 -9.048419 0.051770031 0
2.3834751 -9.04317 0.05183813 0
2.4032321 -9.037921 0.051906124 0
2.4230757 -9.037673 0.051969618 0
2.4479189 -9.0373392 0.052045912 0
2.4677625 -9.0370922 0.052109241 0
2.4874349 -9.0268469 0.052181244 0
5.048161 -18.169847 0.71029681 0
8.6335506 -30.903194 4.0227404 0
1.0735213 -3.800082 -0.48158661 0
1.2857417 -4.5266943 -0.39670548 0
1.6410781 -5.7309537 -0.28689763 0
2.5912228 -9.0005484 0.052531198 0
8.9326916 -30.868216 3.2736402 0
1.1029304 -3.77987 -0.47645876 0
1.4895382 -5.0636349 -0.35164234 0
2.2100773 -7.4769969 -0.092008382 0
5.3157887 -17.886358 0.70638382 0
9.1475792 -30.626638 4.7695179 0
1.3547231 -4.4960465 -0.39643893 0
1.9787828 -6.5259681 -0.20669624 0
5.4128013 -17.765123 0.70179284 0
9.5452547 -31.185667 4.8600945 0
1.5587894 -5.0479326 -0.35139689 0
2.7844818 -8.9781485 0.053148553 0
9.5842705 -30.774668 4.0406141 0
1.4145325 -4.5054197 -0.39625183 0
2.3537199 -7.4552956 -0.091538846 0
9.6664753 -30.558016 3.2660654 0
1.1967795 -3.7490799 -0.47610053 0
1.8239034 -5.6790075 -0.28625152 0
3.7267029 -11.553327 0.27326155 0
9.8770685 -30.505764 4.0217199 0
1.332145 -4.0821004 -0.44103441 0
2.1267598 -6.469348 -0.20617113 0
3.8005898 -11.522434 0.27351394 0
10.098466 -30.503372 4.7973542 0
1.6723804 -5.0118265 -0.35098734 0
3.8495996 -11.486846 0.27369437 0
10.311735 -30.649635 4.0528035 0
1.5181421 -4.4644599 -0.39586744 0
2.5267932 -7.4133325 -0.095961571 0
10.078622 -29.503096 3.1882858 0
1.4015294 -4.0714755 -0.44079223 0
1.9576445 -5.657618 -0.29080352 0
3.9673374 -11.410474 0.27412021 0
10.671001 -30.585453 4.8338799 0
1.7564758 -4.991003 -0.35069624 0
4.0321012 -11.419642 0.27429846 0
10.856657 -30.692873 4.8592944 0
1.7812307 -4.9857588 -0.35061237 0
3.1851168 -8.8884163 0.054448009 0
6.1180534 -16.986542 0.69461906 0
10.929046 -30.206625 4.0299683 0
1.6116024 -4.4137058 -0.3955045 0
2.061317 -5.6216006 -0.29044053 0
2.7145789 -7.3612943 -0.095336586 0
4.2096252 -11.352568 0.27488384 0
9.3012667 -24.95162 1.5206144 0
1.3897763 -3.7025235 -0.48039868 0
1.6712506 -4.4131317 -0.39531466 0
2.1253583 -5.5909925 -0.2902104 0
2.4485867 -6.4109483 -0.21011683 0
2.4528115 -6.3709741 -0.20506236 0
2.4782081 -6.4006534 -0.2100164 0
2.4982646 -6.4104228 -0.20996633 0
2.502492 -6.37045 -0.20491213 0
2.8927548 -7.3243876 -0.094767153 0
3.5015893 -8.8098745 0.055457368 0
4.4958825 -11.254284 0.27580374 0
4.5256038 -11.248931 0.27589265 0
4.544919 -11.218745 0.27597722 0
6.6992331 -16.464905 0.69176692 0
9.1948986 -22.465946 1.4127514 0
1.5081674 -3.6516871 -0.47995439 0
1.6533464 -3.9794891 -0.43987188 0
1.6684579 -3.9893246 -0.44483569 0
1.6730604 -3.9693346 -0.43979958 0
1.6830794 -3.9742565 -0.43977162 0
1.8592736 -4.3665795 -0.39966783 0
2.087357 -4.8780961 -0.34953848 0
2.3724034 -5.5137277 -0.28937528 0
2.7403431 -6.3330755 -0.20916545 0
3.160008 -7.2666483 -0.093925685 0
4.855957 -11.115337 0.27695447 0
7.0958347 -16.155554 0.68815351 0
8.7611952 -19.865852 2.3090868 0
1.9282283 -4.3310766 -0.3994157 0
2.8091731 -6.2924809 -0.20892137 0
3.9021177 -8.7056427 0.051708862 0
3.9269674 -8.705369 0.05177854 0
3.9466581 -8.6951771 0.051843956 0
3.9664292 -8.6899843 0.051905274 0
5.0682836 -11.043067 0.2776114 0
7.3605886 -15.967754 0.68904841 0
9.5941935 -20.708628 1.3455012 0
1.6811758 -3.59554 -0.47933814 0
1.8410879 -3.9131575 -0.44420955 0
2.0320685 -4.3003058 -0.39906368 0
2.2798333 -4.8015814 -0.34887555 0
2.2947664 -4.8014374 -0.35383186 0
2.6095884 -5.4366975 -0.2885929 0
2.624511 -5.4365582 -0.29354927 0
3.4814622 -7.178546 -0.097921222 0
5.3248553 -10.945455 0.2784062 0
11.180019 -22.943008 3.8775902 0
1.9152087 -3.8876822 -0.44395265 0
3.0817697 -6.2499528 -0.21309155 0
7.7785697 -15.733383 0.69037968 0
11.393139 -22.995918 4.5080972 0
2.3888361 -4.7807164 -0.35353002 0
3.5904217 -7.1575317 -0.097594857 0
11.949208 -23.806488 2.773782 0
1.804795 -3.5547709 -0.48390904 0
2.4182165 -4.7555437 -0.35341755 0
4.377027 -8.5859308 0.053141549 0
11.703121 -22.936409 3.2939422 0
1.834721 -3.559561 -0.48882082 0
2.4528308 -4.7452965 -0.35330507 0
3.6941509 -7.1216235 -0.097271413 0
34.4785 -66.456299 5.5428796 0
11.839442 -22.736464 5.1244698 0
3.2445405 -6.178617 -0.21256188 0
10.891434 -20.728506 1.3788513 0
1.8740525 -3.534385 -0.48367301 0
2.2494948 -4.2238202 -0.40333149 0
4.5502295 -8.5443048 0.053650588 0
12.157799 -22.801472 3.3102212 0
2.5369124 -4.7196784 -0.35303566 0
8.3515139 -15.54242 0.69204473 0
11.944616 -22.171064 4.4302473 0
2.9063349 -5.3493209 -0.29265293 0
5.8634911 -10.775128 0.27999946 0
12.433879 -22.844278 4.565886 0
2.58639 -4.7043118 -0.35787883 0
8.4994831 -15.480959 0.69247913 0
1.9483274 -3.5139394 -0.48842755 0
3.4029868 -6.1423011 -0.21708596 0
12.641468 -22.805513 2.7214298 0
12.803902 -23.029989 5.261642 0
2.6308603 -4.6890297 -0.35773495 0
4.778162 -8.5021696 0.049297422 0
12.825065 -22.793556 2.7318997 0
1.9774426 -3.473937 -0.48329476 0
2.6654079 -4.6738043 -0.35762212 0
4.0155578 -7.0238748 -0.10130543 0
13.080026 -22.870543 2.7474504 0
2.0122979 -3.47367 -0.48819581 0
2.6897342 -4.6437335 -0.35752562 0
3.5464687 -6.1011515 -0.21666238 0
4.9366226 -8.4657373 0.049734533 0
13.373883 -22.902258 2.7681215 0
2.0572515 -3.4833469 -0.49307683 0
2.4621289 -4.1524754 -0.4076511 0
3.60062 -6.070796 -0.21649289 0
5.0307508 -8.4448795 0.049987704 0
9.1015854 -15.240148 0.69916177 0
9.1564665 -15.249539 0.69928467 0
9.2215729 -15.27378 0.69941956 0
9.2407093 -15.233705 0.69949746 0
9.2750711 -15.208405 0.69959909 0
9.2839127 -15.148482 0.69966817 0
9.3182707 -15.123189 0.69976938 0
9.3374138 -15.083117 0.69984657 0
9.3616428 -15.047965 0.69493151 0
9.3909378 -15.017744 0.69502413 0
9.4100103 -14.972674 0.69510442 0
9.4494534 -14.952308 0.69521242 0
32.618015 -51.461536 4.5755033 0
2.1802394 -3.4029562 -0.49264821 0
2.1901891 -3.4029012 -0.49262044 0
2.4047594 -3.7198863 -0.45736548 0
2.4146295 -3.7148364 -0.45733425 0
2.6597459 -4.0713949 -0.41203985 0
2.9817417 -4.556849 -0.3616679 0
3.405741 -5.180841 -0.30116835 0
3.4155118 -5.1708102 -0.30113432 0
3.9620693 -5.9730568 -0.2254912 0
6.8904839 -10.371166 0.28286004 0
33.844601 -50.824825 4.5886784 0
2.2692347 -3.3675704 -0.49737015 0
2.4835975 -3.674597 -0.45710948 0
3.0605857 -4.5114398 -0.36142406 0
4.0156398 -5.9078875 -0.22530201 0
4.658658 -6.8238435 -0.10452789 0
9.7961693 -14.320721 0.69149411 0
34.873844 -50.910892 7.5258703 0
2.5330422 -3.654361 -0.46196011 0
3.1148832 -4.4861846 -0.36626199 0
4.0947242 -5.8773642 -0.22508302 0
7.1519046 -10.244127 0.28356466 0
10.328427 -14.760126 1.9723696 0
2.5675337 -3.6342561 -0.46185008 0
4.1391506 -5.8570991 -0.22495815 0
7.2309494 -10.213524 0.28376889 0
10.360324 -14.595345 1.9625605 0
2.6022975 -3.6290529 -0.46175542 0
3.6478274 -5.0793977 -0.30547664 0
5.8510561 -8.1384792 0.047209308 0
7.3397522 -10.177687 0.28404313 0
9.9753609 -13.770811 0.68229783 0
36.769463 -50.66684 7.6350956 0
2.6415977 -3.5989864 -0.46162483 0
3.2939179 -4.4749274 -0.37580666 0
3.7319958 -5.0539031 -0.31024984 0
4.3126392 -5.8158917 -0.22950992 0
4.3376155 -5.8206673 -0.22945514 0
4.3422384 -5.8007298 -0.22942767 0
4.3519325 -5.7857208 -0.22939262 0
4.3667684 -5.7806411 -0.22935346 0
4.3713222 -5.7557049 -0.22932276 0
4.4065804 -5.7803407 -0.22926 0
4.4162755 -5.7653337 -0.22922531 0
4.4411821 -5.7651138 -0.22916773 0
4.4356689 -5.735321 -0.22915611 0
4.4605751 -5.7351031 -0.22909877 0
4.4754109 -5.7300296 -0.22906014 0
4.4851084 -5.7150254 -0.22902581 0
4.5100856 -5.7198086 -0.22897217 0
4.5248532 -5.7097349 -0.22893044 0
4.5294828 -5.6898022 -0.22890404 0
4.5545406 -5.699584 -0.23385409 0
4.5591602 -5.6796556 -0.2288278 0
4.57901 -5.6745105 -0.2337788 0
5.3262239 -6.5744362 -0.11278296 0
8.097702 -9.9767408 0.28585666 0
12.243326 -15.056534 2.561305 0
2.6196096 -3.1816328 -0.50628185 0
3.1685369 -3.8392563 -0.42554715 0
4.0732913 -4.9220443 -0.31933919 0
5.4151416 -6.5339456 -0.11755535 0
10.386233 -12.516694 0.66903353 0
12.199875 -14.674025 3.4314561 0
4.1077833 -4.9019451 -0.31924376 0
37.784573 -45.216263 4.4504752 0
12.008789 -14.312143 3.8212907 0
4.1425591 -4.8967204 -0.31916073 0
37.970161 -45.010139 4.445961 0
12.067429 -14.246856 3.8164523 0
4.7820296 -5.6083422 -0.23827186 0
38.267979 -44.967525 4.4565725 0
2.7036116 -3.1414802 -0.51103723 0
4.1968513 -4.8664813 -0.32401487 0
8.5141268 -9.8736181 0.28680685 0
12.337862 -14.299225 3.401968 0
4.2215619 -4.8564 -0.3239511 0
38.370331 -44.26899 4.4271498 0
12.482189 -14.342857 3.8822424 0
4.8962131 -5.5876231 -0.23800471 0
12.65619 -14.460174 2.5425184 0
12.473886 -14.203786 4.3173089 0
6.8347816 -7.742034 0.044665545 0
12.357548 -13.99026 3.3671908 0
3.7830451 -4.2478781 -0.38946226 0
8.7220039 -9.8022413 0.28728256 0
2.7928061 -3.1111867 -0.51579618 0
4.3153501 -4.8060336 -0.32370427 0
10.598128 -11.812812 0.6599021 0
3.0461013 -3.3680344 -0.47042564 0
4.9895773 -5.5123444 -0.23774752 0
12.926462 -14.308764 3.0081494 0
3.4007335 -3.723541 -0.434908 0
6.9878736 -7.6661983 0.045035198 0
11.974112 -13.142133 3.6519132 0
4.3947134 -4.7856169 -0.32851472 0
12.963683 -14.154094 2.9983101 0
3.4303644 -3.708488 -0.43482789 0
7.0520878 -7.6358743 0.045187265 0
11.925474 -12.91353 3.6119444 0
12.879035 -13.902523 5.7382922 0
12.127975 -13.071124 3.2272515 0
12.949972 -13.916562 5.2784233 0
13.254349 -14.206081 2.568856 0
12.757129 -13.634029 4.7281966 0
9.0984068 -9.6797352 0.28812176 0
3.1602263 -3.337589 -0.48013708 0
5.9589272 -6.2960501 -0.12122473 0
12.305768 -13.024845 3.6776361 0
7.1854758 -7.5701709 0.040501833 0
3.1748641 -3.3176126 -0.48008808 0
9.1925173 -9.6491327 0.28832775 0
12.252191 -12.851332 4.0776253 0
9.2272215 -9.6388893 0.28840306 0
3.1947007 -3.3125701 -0.48003826 0
5.2474313 -5.4409237 -0.24714968 0
12.910518 -13.413052 3.3586054 0
3.9950328 -4.1123676 -0.39388928 0
10.937737 -11.282411 0.65587759 0
12.922117 -13.313739 4.2486887 0
5.2765784 -5.3959808 -0.24705896 0
12.538513 -12.848395 2.823175 0
3.5785446 -3.6281402 -0.43943414 0
7.378418 -7.48909 0.040941074 0
2.9651921 -2.9861903 -0.52028728 0
13.226194 -13.391207 4.7642365 0
7.4279733 -7.4738111 0.041049004 0
2.9749115 -2.9712749 -0.52025223 0
3.6230772 -3.6080236 -0.44432119 0
5.3754845 -5.3505702 -0.25182471 0
13.687349 -13.650276 3.0149813 0
13.704073 -13.620924 4.410038 0
6.2507706 -6.1696405 -0.12554792 0
13.382349 -13.219465 2.4946096 0
3.3181822 -3.2423947 -0.48970678 0
4.7256579 -4.6094747 -0.33768663 0
9.7431421 -9.5104771 0.28948447 0
3.0391719 -2.9361861 -0.52507973 0
3.7022569 -3.5728242 -0.44912341 0
6.354825 -6.13412 -0.13031822 0
13.326733 -12.86659 2.464673 0
13.480282 -12.970455 3.8249245 0
4.2026286 -4.0068069 -0.40337113 0
5.5435996 -5.2698998 -0.25143191 0
9.9565334 -9.459096 0.28992009 0
13.371799 -12.68768 3.3298409 0
3.3970528 -3.1873965 -0.48949233 0
5.5981655 -5.2546544 -0.25631323 0
10.075859 -9.4432621 0.29015484 0
13.591603 -12.725763 3.3602333 0
3.7960134 -3.5126991 -0.44888082 0
4.8886566 -4.5190439 -0.34229383 0
6.5628181 -6.0531354 -0.13486132 0
10.22477 -9.4073057 0.29045361 0
14.204802 -13.059254 3.4712229 0
13.63685 -12.486603 3.7854328 0
3.8403196 -3.4777417 -0.4537631 0
4.9628601 -4.4838099 -0.34212247 0
6.6768837 -6.0175447 -0.13461998 0
10.408405 -9.361165 0.29081854 0
11.985003 -10.741879 0.66812843 0
3.2123299 -2.8510432 -0.53463376 0
13.702085 -12.202505 3.760673 0
3.5354838 -3.1122477 -0.49914262 0
3.5453763 -3.1072402 -0.4991183 0
3.5451446 -3.0923588 -0.49910823 0
3.5752325 -3.1020997 -0.50405264 0
3.5446718 -3.0626018 -0.49408814 0
3.5798228 -3.0772789 -0.49902567 0
3.5897167 -3.0722721 -0.49900165 0
3.5945487 -3.0623291 -0.49898472 0
3.6094422 -3.0572617 -0.49895081 0
3.6244073 -3.057194 -0.50391996 0
3.6343017 -3.0521894 -0.50389612 0
3.6391346 -3.0422475 -0.50387943 0
3.6490293 -3.0372436 -0.50385582 0
3.6538632 -3.0273023 -0.50383914 0
3.6688197 -3.0272372 -0.50380862 0
3.6735916 -3.0122993 -0.50378919 0
3.6784878 -3.0073581 -0.5037756 0
3.6934543 -3.0072913 -0.50874519 0
3.7033503 -3.0022898 -0.50872183 0
3.7131853 -2.9922886 -0.50869572 0
4.1269975 -3.3124089 -0.46807352 0
4.6569271 -3.7261422 -0.41728052 0
5.3483906 -4.2679458 -0.35624883 0
8.6749964 -6.9181185 0.028685391 0
12.874228 -10.243032 0.67991626 0
12.043415 -9.5389147 1.7287011 0
3.424211 -2.6814644 -0.5440712 0
3.7722838 -2.9424114 -0.50854552 0
4.1910558 -3.262527 -0.46791795 0
4.210947 -3.2574155 -0.46787629 0
4.2157803 -3.2474859 -0.46786115 0
4.2256827 -3.2424927 -0.47283909 0
4.2405758 -3.2374425 -0.47280738 0
4.2554684 -3.232393 -0.47277579 0
4.2603025 -3.2224643 -0.47276083 0
4.2701364 -3.2124763 -0.47273627 0
4.2900896 -3.2123685 -0.47269794 0
4.289865 -3.1975007 -0.47269008 0
4.2997594 -3.192513 -0.4726685 0
4.3095946 -3.1825264 -0.47264418 0
4.3244977 -3.1774802 -0.47761306 0
4.3343334 -3.1674943 -0.47758892 0
4.3492289 -3.1624491 -0.47755799 0
4.3591242 -3.1574636 -0.47753671 0
4.3589025 -3.142597 -0.47752914 0
4.3788567 -3.142494 -0.47749159 0
4.3937621 -3.1374478 -0.48246089 0
4.4036584 -3.1324642 -0.48243991 0
4.4084382 -3.1175396 -0.48242304 0
4.4233346 -3.112498 -0.48239258 0
4.4332318 -3.1075149 -0.48237178 0
4.4430709 -3.097532 -0.48234829 0
4.4529095 -3.0875537 -0.48232487 0
4.4628072 -3.082572 -0.48230425 0
4.4777141 -3.0775297 -0.48727414 0
4.4875546 -3.0675483 -0.48725095 0
4.5024524 -3.06251 -0.48722103 0
4.5173507 -3.057472 -0.48719123 0
4.5221348 -3.0425506 -0.48717502 0
4.5320916 -3.0425708 -0.48715737 0
4.5469332 -3.0325344 -0.48712513 0
4.5568328 -3.0275559 -0.48710498 0
4.5717411 -3.0225174 -0.49207553 0
4.581584 -3.0125401 -0.49205288 0
4.5914264 -3.0025656 -0.49203035 0
4.6013284 -2.9975829 -0.49201038 0
4.6111732 -2.9876029 -0.49198791 0
4.6159616 -2.972681 -0.49197224 0
4.6308632 -2.9676456 -0.49194321 0
4.6458311 -2.9676073 -0.4969168 0
4.6506209 -2.9526856 -0.4969013 0
4.6705794 -2.9525945 -0.49686578 0
4.6854258 -2.9425611 -0.49683449 0
4.6852732 -2.9326973 -0.49683097 0
4.6951208 -2.9227202 -0.49680904 0
4.704968 -2.912744 -0.49678716 0
4.7148161 -2.9027681 -0.49676582 0
4.7397842 -2.9026232 -0.50172389 0
4.7396331 -2.8927615 -0.50172281 0
4.7494817 -2.8827884 -0.50170338 0
4.7543306 -2.8728714 -0.50169325 0
4.7742352 -2.8677874 -0.5016582 0
4.7840853 -2.8578148 -0.50163901 0
4.7939348 -2.8478432 -0.50161994 0
4.7987852 -2.8379273 -0.50161004 0
4.8187547 -2.8378427 -0.50657797 0
4.8235512 -2.8229277 -0.50656569 0
4.3452578 -2.5232918 -0.54727721 0
4.3601685 -2.5182607 -0.54725099 0
3.942363 -2.2629437 -0.57787383 0
12.087476 -6.9498467 0.29431614 0
12.107092 -6.9248986 0.29434451 0
10.612666 -6.0312567 0.0071108043 0
8.6956053 -4.9121995 -0.17575562 0
8.7254305 -4.9020801 -0.18070981 0
7.5228601 -4.19522 -0.31750265 0
7.5276351 -4.1803541 -0.31749669 0
6.430809 -3.5473192 -0.39913175 0
5.6258044 -3.081111 -0.47032961 0
4.9717317 -2.703269 -0.51630187 0
4.9866414 -2.6982501 -0.51627779 0
4.9964976 -2.6882856 -0.51626015 0
4.4984531 -2.4037299 -0.55699897 0
4.5284295 -2.4035392 -0.56194997 0
4.0958056 -2.1582661 -0.59259057 0
4.1006722 -2.1483397 -0.59257996 0
14.140108 -7.427774 0.66733128 0
12.410496 -6.4812007 0.29475841 0
11.103188 -5.7601438 0.0028169751 0
11.117832 -5.7352381 0.0028364658 0
9.0815134 -4.6518393 -0.18518355 0
7.8044333 -3.9704094 -0.32707629 0
6.6681147 -3.3674841 -0.41375831 0
5.8284473 -2.9214208 -0.47999963 0
5.1446433 -2.558707 -0.52600908 0
4.6167245 -2.2793441 -0.56678772 0
4.1994281 -2.0588121 -0.60240233 0
4.2092986 -2.0488365 -0.60238385 0
4.2142215 -2.0439124 -0.60237646 0
4.2190928 -2.0339894 -0.60236669 0
4.2440758 -2.0338562 -0.60732746 0
15.247096 -7.3211827 0.69387043 0
15.256567 -7.2814054 0.69387758 0
15.250998 -7.2367816 0.68886137 0
15.195116 -7.1626754 0.68877381 0
15.259897 -7.1523314 0.6888603 0
15.003166 -6.995276 0.68347287 0
12.933273 -5.9865551 0.29543075 0
13.008177 -5.9860721 0.29553398 0
13.017727 -5.9512563 0.2955431 0
11.676489 -5.3050289 -0.0064281523 0
11.706203 -5.284986 -0.0063893795 0
12.961136 -5.8226752 0.29543841 0
42.273598 -18.942219 1.4132475 0
41.686085 -18.584888 3.5323477 0
4.3524079 -1.9046866 -0.61713958 0
5.3466501 -2.3348377 -0.54068816 0
6.0897322 -2.6475351 -0.49460438 0
7.0236144 -3.0433531 -0.42824587 0
8.3340454 -3.5954382 -0.34634003 0
9.7798519 -4.1962404 -0.20423856 0
11.953662 -5.1048522 -0.00608325 0
13.39401 -5.6908946 0.29600117 0
42.188454 -17.895699 2.4777792 0
4.4015317 -1.8352386 -0.61705863 0
5.4356723 -2.2601318 -0.54555786 0
7.1123824 -2.9487095 -0.43312791 0
8.4777517 -3.500416 -0.35615358 0
9.9332314 -4.0763068 -0.20904899 0
12.171832 -4.9745502 -0.010818958 0
13.375835 -5.4331002 0.29591376 0
13.340312 -5.3887386 0.29585093 0
13.309691 -5.3343258 0.29580063 0
13.454897 -5.3631926 0.2959981 0
13.569908 -5.3723583 0.29615474 0
13.53434 -5.3229976 0.29609364 0
12.36989 -4.829493 -0.015590668 0
10.121137 -3.9165335 -0.21382886 0
10.135884 -3.8966222 -0.21381408 0
8.6552134 -3.3011332 -0.36094484 0
7.3250823 -2.7691598 -0.44285527 0
6.3513298 -2.3787081 -0.50925183 0
5.5934172 -2.0761526 -0.55533779 0
5.0162206 -1.8468354 -0.59616446 0
4.5594592 -1.6613418 -0.63681602 0
13.885948 -5.0628471 0.29648137 0
12.626547 -4.5650325 -0.015323102 0
10.338514 -3.7070122 -0.22359058 0
8.8131819 -3.1366887 -0.36576858 0
7.4683919 -2.6296213 -0.45268247 0
6.4648452 -2.2542887 -0.51411045 0
5.6720839 -1.9619309 -0.56023836 0
5.0950708 -1.7475117 -0.60105789 0
4.6434846 -1.5768912 -0.64169741 0
5.1148515 -1.7276106 -0.60603106 0
6.5191474 -2.1946151 -0.51904798 0
8.9816704 -3.0117826 -0.37557444 0
12.798085 -4.2764688 -0.020199835 0
14.141492 -4.6943421 0.29668123 0
45.429077 -15.044686 3.6907001 0
4.6728344 -1.5174291 -0.64665818 0
5.7559056 -1.8575323 -0.56513381 0
7.6765523 -2.4749117 -0.46743974 0
10.655021 -3.4176264 -0.22826353 0
13.547702 -4.3263474 0.29578125 0
13.941976 -4.4234066 1.3213197 0
5.1836529 -1.6184154 -0.61094391 0
7.7408767 -2.4150765 -0.47236732 0
10.739098 -3.3378165 -0.23318157 0
14.368609 -4.4499879 0.29687443 0
13.664673 -4.1971245 1.2958791 0
4.7419243 -1.4330215 -0.65156662 0
5.8297687 -1.7532526 -0.57505095 0
7.835134 -2.3501663 -0.47726235 0
7.8549671 -2.3351777 -0.47723946 0
7.8698006 -2.3202353 -0.47722426 0
7.8946877 -2.3102005 -0.482196 0
6.7564826 -1.9556706 -0.53877962 0
5.8990703 -1.6885675 -0.57997084 0
5.2722816 -1.4893584 -0.61583924 0
4.7959962 -1.3437723 -0.65650094 0
14.649679 -4.1011577 0.2970832 0
13.030636 -3.6108217 -0.020162374 0
11.065678 -3.0335505 -0.24287936 0
9.4816961 -2.5728428 -0.40006772 0
8.0781164 -2.1655011 -0.49200222 0
6.8851123 -1.8262544 -0.54864538 0
6.0028381 -1.5692223 -0.58985686 0
5.34622 -1.3851722 -0.62576056 0
4.8600059 -1.2445902 -0.66642737 0
15.056879 -3.8507063 0.29747313 0
13.112537 -3.3179438 -0.020192891 0
11.288391 -2.8190932 -0.25268713 0
9.7048397 -2.3981066 -0.40985194 0
8.2164679 -2.0062592 -0.50188184 0
7.0037007 -1.6869766 -0.55853248 0
6.1066484 -1.4499186 -0.59975159 0
5.4451947 -1.2807922 -0.63565195 0
4.9290004 -1.1403877 -0.67135048 0
4.9389482 -1.1354457 -0.67134094 0
44.15517 -10.179847 1.3864391 0
43.357529 -9.8925076 1.3703004 0
43.561893 -9.8365803 1.3705091 0
44.567772 -9.9588327 1.3967921 0
43.895443 -9.7053909 1.3808233 0
42.76231 -9.3558359 1.3492393 0
42.746185 -9.2417822 1.3491558 0
41.941063 -8.9900856 3.3330104 0
5.013123 -1.0460829 -0.68126214 0
5.5439343 -1.1467565 -0.64555717 0
7.2016764 -1.4779683 -0.57335281 0
8.5037737 -1.7322257 -0.52162886 0
10.091258 -2.0391455 -0.42953023 0
11.708626 -2.3458967 -0.26239786 0
13.330796 -2.6426902 -0.020263404 0
13.355554 -2.6177733 -0.020248175 0
15.60354 -3.0244732 0.2977047 0
42.480885 -8.1870871 1.338135 0
43.458744 -8.2904968 3.4293518 0
5.0871964 -0.94189233 -0.69119108 0
6.3490009 -1.1666309 -0.62453353 0
6.3538685 -1.1517566 -0.6245321 0
6.3637772 -1.1418414 -0.62452531 0
6.3786454 -1.1268855 -0.62451017 0
6.3935614 -1.1169317 -0.62949705 0
6.4034305 -1.1020178 -0.62948895 0
6.4083004 -1.087145 -0.62948775 0
7.3995557 -1.2442559 -0.59320188 0
8.76126 -1.4583981 -0.54143715 0
8.7811241 -1.443446 -0.54142177 0
7.4241204 -1.1946111 -0.5931915 0
7.4389896 -1.1796752 -0.59317958 0
7.4438663 -1.1648198 -0.59818137 0
6.4774899 -0.99275649 -0.63443732 0
7.4636083 -1.1350327 -0.59817171 0
7.4784794 -1.1200995 -0.59816027 0
6.5121593 -0.95298678 -0.63941073 0
6.527081 -0.94303548 -0.64439857 0
6.5219502 -0.92824709 -0.63941169 0
6.5418329 -0.91325706 -0.64439142 0
6.54671 -0.89838803 -0.6443913 0
6.5515876 -0.88351911 -0.6443913 0
6.5665045 -0.87357152 -0.64437962 0
6.5763893 -0.85866225 -0.64937305 0
5.8305082 -0.74466848 -0.68032825 0
5.2598276 -0.65427685 -0.71605742 0
5.2697492 -0.6443463 -0.71604919 0
5.2996778 -0.63425881 -0.72101486 0
5.2295117 -0.61495745 -0.71110833 0
5.289485 -0.60963607 -0.72103655 0
5.2844086 -0.59982282 -0.72104812 0
15.66738 -1.7655288 0.29699168 0
13.970991 -1.5387849 -0.030161262 0
12.609865 -1.35443 -0.29688683 0
10.813331 -1.1333841 -0.46915314 0
9.1919031 -0.93595904 -0.57619286 0
7.765636 -0.76700854 -0.62798309 0
6.699717 -0.64527923 -0.65932047 0
5.3386292 -0.49573612 -0.72601962 0
13.97896 -1.2861372 -0.030323833 0
12.502931 -1.1124574 -0.29216978 0
11.006931 -0.95389581 -0.48403761 0
9.3207169 -0.78173029 -0.58613288 0
7.8646626 -0.63780159 -0.63793838 0
6.7588391 -0.52621931 -0.66930664 0
6.0033121 -0.45199457 -0.70524192 0
5.3978891 -0.39163229 -0.73599005 0
15.457177 -1.1080384 0.29628271 0
13.776364 -0.9506408 -0.025791109 0
11.070237 -0.73067611 -0.48410669 0
9.4493561 -0.59776121 -0.59609258 0
6.8279877 -0.40710482 -0.67428517 0
5.4473143 -0.30731851 -0.74596548 0
13.749969 -0.76260966 -0.025958747 0
11.949263 -0.63085699 -0.26815084 0
9.5685091 -0.478203 -0.60603321 0
8.0578222 -0.37928173 -0.65786076 0
6.8972783 -0.30280086 -0.68426192 0
6.8921776 -0.28800854 -0.68427718 0
6.9070826 -0.27307165 -0.68926823 0
6.9169831 -0.25817591 -0.68926573 0
5.5015364 -0.18839851 -0.7559588 0
11.812469 -0.37914738 -0.25849012 0
11.7573 -0.35479191 -0.25857612 0
9.6520023 -0.25978491 -0.61108053 0
8.1916256 -0.20025061 -0.67281783 0
6.9712687 -0.14899416 -0.69426501 0
6.9761729 -0.13413228 -0.69426882 0
6.2009697 -0.099702507 -0.7351861 0
5.5658226 -0.074274249 -0.76593697 0
46.288174 -0.63312632 1.4065124 0
13.860627 -0.13761213 -0.026306748 0
11.890513 -0.086415552 -0.26361868 0
10.150402 -0.048593048 -0.42065629 0
9.3653851 -0.01915996 -0.58658028 0
8.3303318 0.003572965 -0.68779063 0
7.0701923 0.02478528 -0.70925474 0
6.2651281 0.039141323 -0.7451905 0
6.2650385 0.053980328 -0.74519849 0
5.6299992 0.064527594 -0.77593398 0
47.47031 0.53555995 1.4317995 0
13.783437 0.20367733 -0.026669383 0
12.038632 0.2117544 -0.26867685 0
10.43881 0.21084258 -0.44051293 0
9.1489639 0.20704104 -0.56699133 0
7.1542273 0.18860152 -0.71925867 0
5.6844153 0.16869135 -0.78592646 0
12.117648 0.37572405 -0.273716 0
9.0783482 0.31052688 -0.5621438 0
8.5235119 0.31171203 -0.7127794 0
8.5433979 0.33164421 -0.71277058 0
9.043005 0.36967057 -0.55722761 0
10.427444 0.44344756 -0.44070432 0
10.382298 0.4679229 -0.43577155 0
10.572135 0.49892583 -0.45057949 0
10.626967 0.52904755 -0.45553634 0
10.806802 0.55997407 -0.4653571 0
9.0423136 0.49341476 -0.5573175 0
9.0672112 0.51336765 -0.56230557 0
9.0920725 0.53831846 -0.56229258 0
10.861226 0.66437042 -0.47037289 0
14.07448 0.87946689 -0.036887348 0
14.587362 0.93203282 1.6586425 0
5.7732558 0.39169785 -0.80595124 0
8.7569418 0.60040414 -0.73771703 0
10.950701 0.7639764 -0.48035482 0
45.825073 3.2279522 0.32734877 0
14.341119 1.0391273 2.3132625 0
8.8016367 0.66007203 -0.74271345 0
14.133433 1.0730679 -0.036986291 0
14.546329 1.1299653 1.6534296 0
6.4925194 0.5252654 -0.78522384 0
12.189256 0.98543543 -0.27912512 0
14.421045 1.1885895 1.6432399 0
5.8027301 0.50066298 -0.81598008 0
9.0907841 0.78580129 -0.56247795 0
14.267516 1.2474248 -0.041979104 0
14.730386 1.3095931 1.6734836 0
5.8275495 0.54035974 -0.82097733 0
7.4465609 0.70013022 -0.76426804 0
9.1053715 0.87005788 -0.56752455 0
12.168278 1.1784724 -0.2793074 0
14.57519 1.4275062 1.318203 0
14.434069 1.4461259 2.3330264 0
7.4912109 0.77467662 -0.77426791 0
12.197832 1.2678676 -0.27934471 0
14.844148 1.5581449 1.688399 0
5.8620968 0.6394946 -0.82599628 0
9.084815 0.98867571 -0.56764174 0
47.779293 5.2154336 0.32764295 0
14.288767 1.5938442 1.9727323 0
7.5458021 0.86409658 -0.7792716 0
15.035108 1.7234368 -0.056520551 0
13.938728 1.621179 1.9323142 0
6.6262889 0.79326856 -0.81024683 0
12.341838 1.4768914 -0.28935978 0
14.313461 1.7328781 1.6376451 0
6.6411667 0.82302403 -0.81525207 0
12.321592 1.5312381 -0.2894288 0
13.39861 1.6818516 1.8666494 0
7.5853243 0.97323239 -0.78930485 0
48.994102 6.240571 0.3280088 0
13.827347 1.7936465 2.5820327 0
9.2437763 1.2175168 -0.58263934 0
13.193988 1.7499515 1.2213619 0
6.6558342 0.90227199 -0.82028794 0
15.723153 2.1296408 -0.07609573 0
13.197525 1.8041571 2.4813125 0
8.7540169 1.2190802 -0.74818385 0
48.426838 6.7328405 0.32687294 0
12.672778 1.7905988 2.3957312 0
8.7538528 1.258673 -0.74821496 0
48.365864 6.9457264 0.32658681 0
12.537679 1.8292946 2.3705454 0
8.7486906 1.298237 -0.7482512 0
13.332962 1.9837992 1.2363174 0
13.111515 1.9722197 2.791101 0
11.22621 1.7118767 -0.50581014 0
13.307147 2.0379598 1.866237 0
6.7302408 1.0511888 -0.83530736 0
11.380906 1.7822629 -0.51570106 0
14.266299 2.2478554 1.6421328 0
12.851335 2.0496554 2.7457366 0
9.4674292 1.5360271 -0.60763454 0
14.415866 2.3430989 1.6572225 0
6.0006757 0.99643016 -0.86106873 0
8.7730465 1.4617406 -0.75335348 0
13.351983 2.2316527 1.2361187 0
6.0105705 1.0261708 -0.86607718 0
7.7488647 1.3356588 -0.81938565 0
19.17256 3.3035874 -0.1532554 0
12.801069 2.2225392 2.4255002 0
7.7637453 1.3703697 -0.82439864 0
19.307127 3.408566 -0.15820998 0
6.0303617 1.0856555 -0.87109399 0
8.7975607 1.5906504 -0.75842512 0
13.975344 2.5282989 1.6165558 0
6.809495 1.2545958 -0.85536027 0
9.8362961 1.8208826 -0.647457 0
12.846032 2.3865435 1.8154134 0
13.064475 2.4524829 3.1156287 0
12.643026 2.3905764 -0.30980596 0
14.039206 2.6673505 2.3014998 0
7.8282447 1.5094117 -0.83443189 0
53.136021 10.222836 0.32872999 0
12.085656 2.3514881 2.6096141 0
11.364204 2.2329469 -0.52109873 0
13.48948 2.6635523 2.2258918 0
7.8380404 1.5689037 -0.83946347 0
53.249485 10.615557 0.32845321 0
6.0798769 1.2343531 -0.88613999 0
9.9355612 2.0246391 -0.6575141 0
14.00885 2.8655055 1.9612957 0
12.414258 2.5568147 3.2948 0
14.308998 2.9619176 1.3115476 0
12.25988 2.5608554 2.6496303 0
9.8903599 2.0887311 -0.65761352 0
13.829058 2.9237523 1.6110384 0
6.868784 1.4727 -0.87045157 0
11.498342 2.4766695 -0.53615654 0
13.124146 2.8344009 2.1753256 0
6.8836789 1.5074365 -0.8754611 0
11.483188 2.5260894 -0.53121769 0
14.587394 3.2264478 2.0366218 0
13.028079 2.9031813 3.1301873 0
19.618467 4.3924942 -0.16878009 0
12.254607 2.7637944 2.3544176 0
14.176085 3.2184298 3.7361848 0
13.538951 3.0953085 1.2605685 0
12.299042 2.8337061 2.6694386 0
11.477781 2.6598132 -0.53634036 0
13.592875 3.1648421 2.2505589 0
7.9870391 1.8818527 -0.86953878 0
52.163013 12.24533 1.5705148 0
6.1541915 1.4673671 -0.9062171 0
8.940732 2.1462758 -0.78870583 0
12.42463 2.9882307 1.4844178 0
6.9131804 1.6808701 -0.88555193 0
52.003998 12.607126 -0.91501009 0
6.1440759 1.5118407 -0.90625548 0
8.960557 2.2107573 -0.79374039 0
12.399444 3.0673137 1.479316 0
12.268218 3.0564044 2.979203 0
53.833511 13.417954 1.6162319 0
6.1739473 1.5615147 -0.91625929 0
10.393541 2.6372201 -0.7125181 0
12.753472 3.2482109 1.8245511 0
8.9852905 2.3050525 -0.79878759 0
13.562575 3.486959 1.5952389 0
13.26122 3.4301529 3.5349767 0
15.265832 3.9601178 1.0267102 0
12.298079 3.2102964 2.6840987 0
11.701502 3.0776575 -0.55645394 0
13.202306 3.4842465 2.2098334 0
13.440746 3.5701809 3.5850465 0
13.872094 3.7023673 1.2953906 0
12.54723 3.3706553 3.0492377 0
14.212115 3.8288293 0.63065618 0
12.002967 3.2527785 2.9337363 0
14.217005 3.8685572 0.63062966 0
6.97259 1.9139227 -0.90565801 0
14.357029 3.938988 0.29071882 0
12.082973 3.332696 2.6487541 0
14.242347 3.9481966 -0.054411143 0
6.2085438 1.734928 -0.93134248 0
14.806818 4.1406479 -0.42395726 0
12.14306 3.4122529 2.3637235 0
10.597539 2.9954109 -0.73759997 0
12.912385 3.6607132 1.8543551 0
12.646629 3.6092618 3.0841322 0
11.900567 3.4160559 -0.57653427 0
13.081749 3.7709081 2.2044423 0
12.621541 3.6636097 3.0840557 0
11.850475 3.4653084 -0.57662702 0
13.136539 3.850606 2.2144299 0
8.2106123 2.4281349 -0.91972625 0
14.241199 4.215703 0.63533103 0
6.2332778 1.8637625 -0.94140613 0
13.015456 3.8992958 3.509274 0
14.530094 4.3713341 1.3505087 0
6.258184 1.9035584 -0.94640648 0
12.935444 3.9433844 3.4941502 0
14.97431 4.5777593 1.3858118 0
6.2481351 1.9331911 -0.94643617 0
12.9553 4.0129299 3.5041091 0
14.474875 4.4998803 1.3503314 0
6.2680726 1.9679619 -0.95644176 0
9.1838617 2.895973 -0.83905339 0
14.214858 4.4880595 1.6800522 0
13.62431 4.3251543 3.3295717 0
15.724268 5.0148587 -0.47874525 0
12.546528 4.0198951 2.4536276 0
10.676578 3.4370039 -0.7578944 0
12.826534 4.1409574 1.8638262 0
12.590567 4.0896788 3.4236386 0
13.910325 4.5305748 1.314675 0
13.713947 4.4894071 3.35952 0
54.107239 17.737913 1.6420646 0
13.09514 4.3214545 2.8889897 0
16.068411 5.3247561 -0.49865255 0
12.761198 4.2445412 2.1786582 0
9.263443 3.1046331 -0.85414147 0
12.946314 4.3451672 1.5637779 0
8.3597927 2.8254876 -0.95488226 0
16.183029 5.4842701 -0.50367463 0
13.519847 4.6020036 2.294174 0
9.2932997 3.1841276 -0.8641758 0
12.991093 4.4595389 1.5687253 0
8.3746738 2.8949623 -0.95992088 0
52.868145 18.270916 0.32010114 0
13.739111 4.7770424 2.6792526 0
12.944533 4.5285211 3.5386331 0
52.871738 18.528833 1.6198251 0
13.904 4.907208 2.3593171 0
8.4195013 2.9943626 -0.96995449 0
53.18576 18.918224 1.6297885 0
13.82877 4.9512663 2.7041943 0
9.3729525 3.3779726 -0.87925124 0
53.050545 19.130728 1.6294022 0
13.833918 5.0257578 2.3591342 0
8.459341 3.0937393 -0.97999299 0
52.940243 19.368345 1.6290377 0
13.78393 5.074975 2.3540311 0
8.4742651 3.1434047 -0.98501647 0
16.916122 6.2879982 -0.54861939 0
13.624321 5.093792 1.9888467 0
7.1961703 2.7077525 -0.98101962 0
12.48783 4.7141957 -0.64704168 0
13.53464 5.1279016 1.638715 0
6.3274612 2.4188588 -0.99170029 0
8.544054 3.2776961 -1.0000523 0
17.769533 6.8397303 -0.5981884 0
13.638888 5.2723756 2.3436966 0
