# .PCD v0.7 - Point Cloud Data file format
VERSION 0.7
FIELDS x y z intensity
SIZE 4 4 4 4
TYPE F F F F
COUNT 1 1 1 1
WIDTH 1397
HEIGHT 1
VIEWPOINT 0 0 0 1 0 0 0
POINTS 1397
DATA ascii
15.512016 0.861287 0.029618919 0
11.833614 0.71472341 -0.46504524 0
10.909726 0.69264096 -0.66237426 0
7.8235016 0.55005413 -0.76740277 0
7.8487549 0.56980449 -0.77203381 0
7.8690085 0.58961433 -0.77670264 0
7.8792248 0.60949236 -0.77644718 0
7.904418 0.62424403 -0.78113008 0
6.8789477 0.57656813 -0.80944049 0
46.992729 3.4603119 1.7497479 0
13.631801 1.1168296 -0.2577 0
10.707202 0.93006468 -0.64687049 0
6.9499211 0.66079479 -0.81815183 0
72.403069 6.13346 0.87335181 0
10.487869 1.0075135 -0.6278944 0
8.1168365 0.82703942 -0.80772018 0
6.2452192 0.67439795 -0.85845494 0
12.019615 1.2481747 -0.47401944 0
9.8347006 1.0669776 -0.80242503 0
8.2230654 0.93094599 -0.82100332 0
7.0869484 0.83436859 -0.84058046 0
6.316318 0.76864487 -0.8720808 0
46.363075 5.1537352 -0.41615328 0
13.992881 1.6534122 -0.27036771 0
10.511032 1.2974869 -0.6302408 0
8.4149294 1.0840116 -0.84821355 0
6.3874087 0.86289662 -0.88571465 0
13.949567 1.8091173 -0.26939461 0
10.47222 1.4129703 -0.62456191 0
8.5412922 1.1977494 -0.86627018 0
7.2645016 1.0525743 -0.87233281 0
6.4635496 0.96209401 -0.89927018 0
14.091932 2.0227509 -0.27151248 0
9.4430399 1.4163303 -0.76247311 0
6.5143814 1.031611 -0.91327822 0
14.173532 2.1670165 -0.27468196 0
10.700384 1.6907346 -0.64546812 0
8.7589598 1.4256022 -0.89766979 0
7.4216843 1.2409981 -0.89952254 0
6.5754724 1.1309408 -0.92195964 0
14.696184 2.4157829 1.7815132 0
14.621495 2.4417503 1.7761555 0
15.30539 2.591841 1.487658 0
14.692291 2.5209405 1.7873524 0
14.767743 2.5650742 1.793293 0
14.693051 2.5910404 1.7879349 0
6.6317425 1.2453705 -0.9355576 0
7.5988636 1.4292125 -0.92656958 0
7.6191039 1.4490253 -0.93124998 0
9.0324154 1.7229468 -0.93807292 0
9.4271765 1.8117218 -0.76428533 0
12.727886 2.4366837 -0.52364171 0
15.267283 2.9307382 -0.31996873 0
14.705854 2.8431616 1.0950515 0
14.635853 2.8521311 1.7896144 0
14.708761 2.8978329 2.1455719 0
6.7787213 1.413942 -0.96800792 0
8.9887772 1.858485 -0.93729365 0
11.317792 2.3397141 -0.70534396 0
12.900569 2.6800683 -0.53532434 0
48.952091 10.009656 -0.43686989 0
14.670764 3.0754623 1.4466829 0
14.240234 3.0090213 2.0928402 0
7.8573775 1.7317476 -0.97706246 0
9.730978 2.1437976 -0.80420721 0
9.7713232 2.1733963 -0.80865788 0
12.92254 2.8700085 -0.53361332 0
13.50767 3.0029407 1.0370663 0
14.753078 3.2997401 1.4591217 0
14.622979 3.2944832 2.1481025 0
14.56828 3.3202112 2.1428897 0
14.498525 3.3411095 2.1375196 0
14.829419 3.4470048 2.1809289 0
6.9618983 1.6971642 -1.0092431 0
6.9871335 1.7169182 -1.01389 0
7.0023685 1.7367861 -1.0186099 0
7.0175672 1.7566056 -1.0183302 0
13.81684 3.3881946 1.7225811 0
14.456044 3.5787864 1.4440429 0
15.10253 3.763916 2.2255774 0
8.1817446 2.1136711 -1.0364298 0
9.8451691 2.5428662 -0.82008946 0
13.689958 3.5274334 -0.5873996 0
14.08414 3.6317697 1.0765626 0
14.628248 3.7969468 1.4621131 0
13.313397 3.4883106 2.3245082 0
8.8539562 2.3850927 -0.92903149 0
52.03075 13.639262 -1.7295513 0
13.268717 3.5502572 1.6746205 0
8.283534 2.2777138 -1.054317 0
14.243947 3.8718395 -0.62537289 0
13.497268 3.6757433 1.3723664 0
13.054465 3.5767624 2.2931881 0
8.3343878 2.3522866 -1.0683235 0
11.858443 3.3249545 -0.76324439 0
13.605956 3.807771 1.0542346 0
13.363643 3.7497706 2.6719692 0
11.889133 3.3897059 -0.76749671 0
14.007779 3.9881446 1.0787834 0
13.021016 3.7273686 2.2941167 0
8.9816198 2.6339433 -0.95105338 0
52.149418 14.945859 -1.7385619 0
12.500018 3.6500142 1.5994209 0
7.3024988 2.1989715 -1.0875311 0
12.066371 3.5930321 -0.78450584 0
13.498029 4.014287 1.0550251 0
12.634066 3.7804766 1.9265094 0
9.017868 2.7536585 -0.95982182 0
16.281422 4.9310355 -0.75622118 0
13.436468 4.0919561 1.3801686 0
13.532328 4.132947 2.7212942 0
10.955254 3.4071896 -0.95961773 0
13.005479 4.0333033 0.71131593 0
13.304935 4.1391234 2.3545599 0
9.02911 2.8736553 -0.96877611 0
13.001133 4.0984282 0.7117933 0
12.982193 4.1113992 1.981814 0
12.795022 4.0694013 2.9201257 0
12.240047 3.9415882 -0.80543637 0
13.809872 4.4378119 1.4157622 0
13.374306 4.3202109 2.7065215 0
9.1105413 3.0079184 -0.98209262 0
14.141678 4.6306257 0.75482845 0
12.80827 4.2137008 1.9662453 0
7.5212889 2.5420196 -1.1431005 0
11.194082 3.7600915 -0.99499857 0
13.427807 4.4956665 1.0632212 0
12.658795 4.2606359 1.95044 0
7.5620351 2.6116471 -1.1522354 0
9.2877445 3.2062724 -1.0091586 0
13.953102 4.7780414 0.74948728 0
12.656979 4.3587627 1.6411675 0
12.936167 4.4760971 2.6443055 0
8.8076916 3.1131043 -1.1686288 0
12.655627 4.457778 -0.84819257 0
15.354163 5.3950696 1.5602196 0
12.646369 4.4748774 2.5970314 0
8.8284445 3.1879311 -1.1728822 0
11.282238 4.0694952 -1.0119239 0
13.353281 4.8150797 0.73508394 0
13.476854 4.8791242 1.7415863 0
12.898283 4.6917968 2.6506629 0
9.3604717 3.4707744 -1.0315305 0
12.972828 4.7794967 0.72183204 0
11.669716 4.3180962 1.838149 0
8.8800669 3.3425703 -1.1912787 0
54.147465 20.019459 -1.8495224 0
13.76952 5.1607971 1.7810309 0
8.8855391 3.3925161 -1.1908449 0
14.379926 5.4574347 -0.65203583 0
13.022636 4.9498281 1.6985627 0
8.9010468 3.4423993 -1.1953413 0
14.217262 5.454092 0.41670781 0
12.434462 4.7828894 2.5827258 0
14.235359 5.5140972 -0.64773917 0
12.511798 4.855998 1.6488435 0
9.985857 3.9249675 -1.1281606 0
13.929696 5.4540949 0.7594763 0
13.674094 5.3572741 2.8218179 0
14.485189 5.7250938 -1.0242009 0
13.127339 5.20189 1.3912909 0
13.19594 5.240097 3.0772579 0
14.671883 5.8733644 -1.0466189 0
12.831829 5.1504016 1.3685751 0
12.567077 5.0664105 2.6209266 0
11.694618 4.7660384 -1.0783629 0
15.631122 6.3465652 1.2195932 0
13.274886 5.4125247 2.7590981 0
11.584593 4.7821412 -1.0641042 0
52.99913 21.650763 0.84361124 0
12.109058 5.0152431 2.231925 0
10.149324 4.2586179 -1.1593269 0
52.785919 21.843674 0.84333932 0
12.0968 5.0783472 1.9272914 0
8.0711527 3.4523065 -1.2867336 0
11.882749 5.0644212 -1.1046244 0
13.881555 5.9068341 1.1175264 0
13.048879 5.5737414 2.3985276 0
13.104589 5.6216054 3.0894186 0
10.402322 4.5264049 -1.2053207 0
13.983088 6.0724854 0.41953754 0
13.23034 5.7630496 1.7513424 0
12.686511 5.5502195 2.6755068 0
10.574169 4.6898589 -1.2327303 0
13.660157 6.0378637 0.76174557 0
11.823504 5.2518911 1.9014475 0
12.875793 5.7346702 3.0584641 0
16.337976 7.322855 -1.2176446 0
14.178483 6.3703923 1.508341 0
13.064453 5.8905916 2.7610266 0
10.530239 4.8103962 -1.2321787 0
13.948225 6.3498526 0.77632886 0
12.070977 5.5240102 1.9454256 0
8.3507881 3.8799911 -1.361305 0
12.329709 5.7206416 -1.1761992 0
13.585012 6.3022437 0.41808498 0
12.290047 5.7294312 1.6636677 0
8.3967867 3.974628 -1.3752253 0
10.803601 5.1130314 -1.2827691 0
13.664068 6.4532199 0.76985109 0
12.165487 5.7759771 1.6530318 0
13.027334 6.2012696 2.7780361 0
9.2414379 4.4599533 -1.3049568 0
12.422517 6.0000372 -1.1984085 0
13.760919 6.6472926 0.77703786 0
13.497549 6.5569839 1.1143051 0
13.555711 6.6180778 1.4702291 0
13.829768 6.7815752 1.8586127 0
13.004056 6.4181075 2.1044164 0
13.619521 6.7474327 2.5517225 0
8.6005592 4.3280234 -1.4359926 0
9.4246378 4.7634354 -1.3462501 0
11.028508 5.5912905 -1.3324538 0
12.667055 6.4380941 -1.2432555 0
12.717669 6.4976234 -1.2474225 0
12.763317 6.5572534 -1.2566242 0
13.908256 7.1594763 0.42694604 0
13.883469 7.1847816 0.42692953 0
13.579643 7.0597644 0.77861017 0
12.825102 6.7368336 -1.2698213 0
11.292634 5.9791427 -1.3875231 0
8.980814 4.7999296 -1.5344996 0
13.450876 7.1731586 2.1984737 0
13.143944 7.0940309 -1.3146894 0
9.0976229 4.9689674 -1.5623299 0
13.542739 7.3888493 1.500739 0
9.184 5.0933313 -1.5907404 0
9.8525238 5.5150857 -1.4573485 0
9.9387465 5.6244154 -1.4808627 0
9.9493589 5.689363 -1.4853075 0
10.05568 5.8084831 -1.5085996 0
10.192241 5.9473314 -1.5365081 0
10.212986 6.0222211 -1.5457983 0
15.215706 9.0657215 -1.6089628 0
10.239592 6.1921196 -1.5593636 0
15.45968 9.4488125 -1.6542772 0
10.357028 6.4262953 -1.5967345 0
17.661552 11.044935 -0.9652319 0
17.538509 11.081908 -0.48092416 0
12.044842 7.6837592 -1.5792347 0
17.358765 11.133913 -0.47700503 0
17.07695 11.024705 -1.8851035 0
17.17902 11.185909 -0.47307935 0
10.864782 7.1523409 -1.7224741 0
12.103181 8.0336227 -1.6112664 0
9.7235527 6.5348287 -1.8010218 0
12.200779 8.2979774 -1.6386023 0
10.948442 7.5319819 -1.764092 0
10.979631 7.6568298 -1.7779679 0
5.0038247 3.6114881 -0.52454734 0
4.7108932 3.4528246 -0.34799936 0
4.575036 3.3890007 -0.32952812 0
4.6348424 3.4572229 -0.20356154 0
4.5731354 3.4376376 -0.73920679 0
4.5202279 3.4244585 -0.32970151 0
4.5633855 3.4726689 -0.73903477 0
4.5399189 3.4880302 -0.1990712 0
4.4166117 3.4126689 -0.58061075 0
4.6796656 3.6343083 0.05309613 0
4.4698553 3.4986184 -0.19454336 0
4.370882 3.4418383 -0.44574437 0
18.720646 14.598918 1.0683088 0
4.479598 3.5673223 -0.068962306 0
4.3361001 3.4771018 -0.44575956 0
4.6001248 3.7099257 0.058027819 0
4.2809663 3.4775486 -0.44119266 0
4.6046834 3.7636237 0.19346091 0
4.219974 3.4768987 -0.30666491 0
4.1974015 3.4754763 -0.6868732 0
4.2649317 3.5603118 -0.18569818 0
4.1565905 3.4896629 -0.55708039 0
4.1703248 3.5322628 -0.30664769 0
4.1301751 3.5275772 -0.30200014 0
4.0951576 3.5328825 -0.3022314 0
4.50981 3.9081519 0.32876647 0
4.0063014 3.5057766 -0.53813589 0
4.0352054 3.5583224 -0.29751888 0
4.4600897 3.9535604 0.32870328 0
3.9413459 3.5312574 -0.53345311 0
3.9601538 3.5739102 -0.2929897 0
4.3649707 3.9594195 0.32799876 0
3.871289 3.5467846 -0.52888918 0
3.9002481 3.6043417 -0.28823134 0
4.3101969 3.9998705 0.32786092 0
3.8373725 3.5930853 -0.65382862 0
3.8259566 3.6160052 -0.40873513 0
4.230175 4.0155692 0.32734507 0
3.8154185 3.649986 -0.28857079 0
3.7168841 3.5789447 -0.63486743 0
3.8250768 3.7037694 -0.16810584 0
3.7012961 3.6079724 -0.5147773 0
3.9105833 3.8368938 -0.056468189 0
3.7009377 3.6568959 -0.39941809 0
4.0902739 4.0617523 0.3265771 0
3.6449304 3.6462851 -0.27493075 0
3.6524911 3.6743479 -0.63968396 0
3.7102387 3.7596104 -0.16359755 0
3.577044 3.6498761 -0.6254462 0
3.5909326 3.6926951 -0.39502046 0
3.635083 3.7651784 -0.15914714 0
3.5170281 3.6702802 -0.62076616 0
3.4912856 3.6794407 -0.50088966 0
3.5008662 3.7183001 -0.38553336 0
3.4700286 3.7175136 -0.26577488 0
3.525126 3.8059766 -0.15470657 0
3.8255005 4.1589198 0.32519633 0
3.7752862 4.1443644 0.32470202 0
3.3561699 3.7153583 -0.49168411 0
3.3658326 3.7592649 -0.38128653 0
3.3169496 3.7366056 -0.60684526 0
3.2999587 3.7686934 -0.25672635 0
3.2849839 3.7787817 -0.25677887 0
3.2600098 3.7889662 -0.25689378 0
3.2603054 3.8239489 -0.26163986 0
3.2952564 3.8976207 -0.15083545 0
3.4702985 4.1329532 0.19722372 0
3.1460049 3.7767282 -0.47787765 0
3.180263 3.8494751 -0.25708041 0
3.39009 4.1335549 0.20160568 0
3.1062052 3.8169584 -0.47789463 0
3.1151495 3.8599114 -0.25250813 0
3.3250546 4.1490488 0.20120999 0
3.0801373 3.8701577 -0.25270531 0
3.4171224 4.3157029 -0.69691646 0
3.1406021 3.9986072 -0.14631325 0
3.0669329 3.9221404 -0.48745283 0
3.1952245 4.1161089 0.079952046 0
3.1275041 4.0556726 -0.39102259 0
3.2007775 4.1859732 0.080498412 0
2.9925392 3.9385812 -0.59791589 0
3.3018913 4.3939404 0.1977649 0
4.3669038 5.8555655 0.0064367354 0
4.3318124 5.855855 0.0061494708 0
4.2867208 5.8562379 0.0058017075 0
3.3200569 4.5907645 -0.06570968 0
3.1293445 4.3744183 -0.29873773 0
3.3665068 4.7602715 -0.074157298 0
3.2011652 4.573801 -0.32177702 0
3.1713252 4.6039915 -0.3217884 0
3.4891002 5.1479549 0.044565678 0
15.10425 22.432058 1.1670126 0
15.293462 23.06559 0.54784244 0
15.261825 23.355722 1.1945691 0
15.029261 23.233276 0.54680014 0
15.166054 23.692842 -0.7590158 0
14.797741 23.445082 1.8363798 0
15.126305 24.228094 -0.10569629 0
3.6272733 5.9040289 -0.30410489 0
14.873433 24.430252 0.55362213 0
13.808945 23.045208 -0.084508628 0
13.984706 23.563625 0.54045403 0
3.8128395 6.5275455 -0.35830286 0
14.519023 25.103508 1.2252918 0
13.48699 23.828379 1.1732159 0
13.570663 24.882656 1.2013655 0
3.8025281 7.4507017 -0.81698525 0
4.0206342 9.5550365 -1.0807265 0
3.9563212 9.6605654 -1.0904868 0
3.8810303 9.6560993 -1.0861118 0
3.7145665 9.5472116 -1.0631683 0
3.1773148 12.251723 -0.50223541 0
2.702213 10.517455 -1.4082437 0
2.6695962 10.593671 -0.90314054 0
2.6220455 10.699976 -0.4030551 0
2.6129317 10.990709 -1.2116072 0
-4.7047391 28.213301 4.4627066 0
-5.1035042 28.449398 -0.23806027 0
-5.3957891 29.301958 0.43597049 0
-5.4164786 28.699484 3.836813 0
-5.2084718 27.219566 -0.21714881 0
-5.5061927 28.476345 -0.92043936 0
-5.6305304 28.406944 5.1785092 0
-5.6829529 28.33684 4.4826779 0
-5.9710851 29.426758 2.5282795 0
-5.4046702 26.338104 1.6656371 0
-5.8652306 28.244587 0.42578095 0
-5.7052226 27.162569 -0.22564641 0
-5.9938226 28.225969 1.0948756 0
-6.3817191 29.713833 1.8476702 0
-6.4016261 29.504354 2.5411298 0
-6.0267291 27.488913 3.6997106 0
-6.1812816 27.869015 3.081341 0
-6.7449479 30.071022 1.8678691 0
-6.2971878 27.784742 3.0750546 0
-6.3817091 27.880219 3.0851824 0
-6.6833625 28.877182 3.8801641 0
-6.615643 28.282589 4.4965487 0
-6.1631937 26.355536 -3.3840721 0
-6.1681108 26.121145 -2.7206812 0
-6.4832544 27.164875 -2.1854706 0
-7.2106614 29.923134 0.42896008 0
-7.3441644 30.149958 2.5947697 0
-6.1156902 25.122643 -3.8321879 0
-6.6622434 27.101622 -1.531968 0
-6.680655 26.90988 1.0567005 0
-6.700861 26.73748 2.9804654 0
-6.9795833 27.585819 5.0846128 0
-6.7598133 26.700253 -2.8053188 0
-7.0026574 27.406872 1.0681337 0
-7.2972674 28.291643 4.5174761 0
-6.909421 26.796215 -2.820575 0
-7.1476507 27.457708 1.0726067 0
-7.260673 27.63553 3.0731976 0
-7.6571922 29.122026 -5.2393484 0
-7.1272163 26.888338 -2.1812363 0
-8.0727491 30.152973 -0.29969493 0
-8.1868114 30.30872 -0.30432287 0
-8.0163212 29.414015 2.5507219 0
-7.6807361 27.934107 4.4777603 0
-7.3782988 26.834721 -2.1830885 0
-7.9798031 28.752834 1.1064241 0
-7.7103868 27.558859 3.7450209 0
-7.3228698 26.161949 -3.4073441 0
-8.5983763 30.450928 -1.0508281 0
-8.1610603 28.648848 1.104646 0
-8.0487795 28.003704 1.7659755 0
-8.874445 30.623898 2.6488237 0
-8.1668262 27.946913 4.4949775 0
-8.2840128 28.123035 5.2204952 0
-8.1084633 27.518196 -3.6128201 0
-8.5552521 28.78842 -2.3818359 0
-8.6498652 28.864042 -2.3918791 0
-8.1168146 26.883169 -2.8721275 0
-8.3243675 27.342863 -4.9653044 0
-8.7063904 28.126837 1.0879357 0
-8.6196051 27.421846 1.7437135 0
-9.3871365 29.37508 -0.30265746 0
-9.5765886 29.501232 -0.30789617 0
-9.1481457 27.761374 -1.6371329 0
-9.4055281 27.288143 -0.94672787 0
-20.663029 54.207508 -2.185756 0
-21.099611 52.81913 -2.1471865 0
-4.8033485 11.865204 -1.1683556 0
-21.082888 42.370663 -0.66374958 0
-20.470934 39.788986 -1.6637448 0
-22.082962 41.951405 10.502413 0
-20.185587 37.9543 9.5463839 0
-20.35161 37.850189 9.5399017 0
-21.809309 40.314053 7.9432111 0
-21.524498 39.599266 -1.6851752 0
-21.694124 39.690231 -1.6904296 0
-22.680544 41.046574 9.2536869 0
-15.217537 27.575245 -5.5553584 0
-23.076719 41.316505 3.7232263 0
-15.305109 27.290102 -5.5175691 0
-20.291548 35.576057 9.0958395 0
-23.049255 40.189545 4.7313066 0
-20.716249 35.752987 9.1749096 0
-22.863722 39.249413 7.8663902 0
-23.903643 40.799843 0.41092703 0
-23.969971 40.716522 -0.68494248 0
-23.161875 39.143326 -2.7709603 0
-15.707977 26.445358 -5.4247513 0
-22.37154 37.222347 7.5260963 0
-21.286097 35.244469 4.2288465 0
-21.351711 35.174774 4.2231064 0
-24.976992 40.711037 10.555639 0
-23.046886 37.365524 7.6038237 0
-23.227123 37.502449 6.5887914 0
-25.334734 40.669315 5.9935207 0
-10.405332 16.667683 -3.3703544 0
-23.466949 37.115589 4.4852514 0
-23.376671 36.61116 8.5677357 0
-23.42621 36.505146 4.4316921 0
-22.905802 35.330242 12.452147 0
-23.675104 36.333485 7.5045862 0
-24.510754 37.444584 5.6125135 0
-27.278698 41.457096 3.8693671 0
-10.110979 15.338065 -3.1320872 0
-24.724052 37.025478 5.5790024 0
-26.103395 38.891426 -1.7910576 0
-10.078774 14.997071 -3.0789914 0
-25.815741 37.896996 4.6593714 0
-23.27873 33.860329 9.1014585 0
-28.65539 41.460144 6.2732706 0
-24.14056 34.59399 9.3370695 0
-24.211109 34.529327 9.3313694 0
-22.423168 31.837481 6.7579751 0
-25.561926 36.113979 5.5397882 0
-23.806179 33.311253 11.080893 0
-10.343256 14.512046 -3.0380108 0
-25.76013 35.69973 5.5064526 0
-26.968563 37.198009 3.5850828 0
-27.227844 37.359329 3.6049256 0
-25.754049 35.173275 0.36823189 0
-25.780806 34.885117 10.641696 0
-26.056795 35.09322 8.601696 0
-26.082689 34.963341 8.5808172 0
-9.7880077 13.169431 -1.6085064 0
-25.83967 34.295509 10.532965 0
-9.8980255 13.189948 -1.6188433 0
-27.976919 36.967442 3.6093996 0
-28.14188 37.013222 3.618969 0
-28.222507 36.943531 3.6182194 0
-25.980448 33.843338 -0.63058817 0
-33.624939 43.594032 -2.1807253 0
-31.630804 40.816906 3.9865546 0
-22.901831 29.428942 5.586678 0
-23.048332 29.479588 4.7113423 0
-24.143667 30.734663 6.7691312 0
-10.804925 13.797177 -2.9890893 0
-29.653097 37.383915 9.3549757 0
-10.885258 13.772453 -2.9945567 0
-10.925449 13.757577 -2.9948037 0
-29.501785 36.67683 10.366527 0
-11.04051 13.768147 -3.0152059 0
-23.777599 29.297636 6.5373263 0
-25.46899 31.235756 6.0065536 0
-23.794294 29.047604 6.5058208 0
-23.864742 28.997883 6.50525 0
-24.713638 29.891722 7.6469808 0
-26.555485 32.123962 -1.5929413 0
-28.380701 34.1591 0.35135955 0
-30.02729 35.970768 3.6301329 0
-28.510902 34.003788 1.3799695 0
-28.799931 34.20031 1.3849249 0
-27.610575 32.63665 4.3308659 0
-27.666229 32.556808 4.3301883 0
-26.957918 31.566772 7.1574655 0
-25.72971 29.990923 7.7784696 0
-25.874765 30.021505 7.8030672 0
-27.557966 31.988316 -1.6227324 0
-27.976084 32.320755 -1.6475126 0
-26.461473 30.435654 -0.59713018 0
-29.661963 33.94804 2.4450886 0
-30.143938 34.329735 3.5403633 0
-27.33366 30.998407 6.1427517 0
-27.814009 31.404821 8.2382154 0
-26.844419 30.312351 -1.5493463 0
-31.739727 35.666138 0.3465296 0
-29.124577 32.578609 3.394537 0
-29.380476 32.712933 6.5143595 0
-27.078354 30.016485 6.9732785 0
-27.123987 29.931618 6.9676299 0
-25.40605 27.913839 8.3481035 0
-33.066879 36.142757 9.5692568 0
-30.818727 33.544106 0.33828491 0
-30.976009 33.561378 -1.7922688 0
-30.88278 33.305519 -1.7783239 0
-26.281355 28.092295 8.500741 0
-30.960575 32.940239 -1.7706311 0
-26.008511 27.42601 9.2781363 0
-12.333205 13.041639 -3.0792108 0
-12.388264 13.041887 -3.0894127 0
-33.116653 34.431492 4.7895279 0
-32.31913 33.449463 7.9722371 0
-34.643116 35.690086 8.5057364 0
-33.158607 34.010258 5.8771029 0
-38.871338 39.677193 -2.2486253 0
-33.241207 33.786366 4.7505598 0
-32.727921 33.116802 6.8688889 0
-32.265152 32.508659 7.8473401 0
-13.023109 13.159929 -3.1860967 0
-26.221567 26.186443 9.0906248 0
-29.432766 29.242065 14.335346 0
-33.42173 33.206657 -1.8683639 0
-31.086872 30.611032 10.656547 0
-16.563932 16.346682 -3.5219767 0
-30.67803 29.937914 12.609484 0
-31.123163 30.371033 -0.69010198 0
-33.836452 32.865383 1.4183714 0
-31.639482 30.59281 1.3392497 0
-33.791035 32.521244 -0.76833463 0
-36.818581 35.120483 11.13976 0
-32.253597 30.625368 10.8524 0
-36.445259 34.597477 -2.0169411 0
-16.718058 15.835954 -3.4852109 0
-36.059586 33.934578 -1.9890625 0
-36.031197 33.585457 11.989481 0
-33.100384 30.729303 9.9148836 0
-33.170998 30.644548 9.9091854 0
-16.924578 15.666383 -3.4918244 0
-16.93005 15.60623 -3.4871552 0
-33.656487 30.681364 9.9876528 0
-37.156311 33.86425 -2.0283499 0
-33.52433 30.420919 0.31156892 0
-32.754314 29.576286 0.30988556 0
-30.47015 27.403046 1.2566432 0
-30.51576 27.323099 1.2560692 0
-33.907276 30.208246 7.7692666 0
-35.993176 31.916786 9.3708401 0
-28.27898 24.978102 8.3168964 0
-32.078232 28.191162 14.730363 0
-32.671711 28.714712 -0.704301 0
-30.694185 26.853088 1.2480259 0
-30.680075 26.722795 1.2474072 0
-30.760509 26.673042 1.2468756 0
-31.559305 27.237139 3.2170472 0
-32.920975 28.288498 5.3677759 0
-12.839269 11.072673 -2.9062262 0
-17.22183 14.75505 -3.4325013 0
-29.097143 24.655785 8.4024363 0
-34.161743 28.936428 -0.73829246 0
-31.960028 26.953285 4.1992555 0
-28.380123 23.836664 6.3807049 0
-29.599083 24.74744 7.5611815 0
-29.169596 24.270756 8.3552485 0
-35.782681 29.764778 -0.77960765 0
-34.424286 28.505285 3.4237247 0
-31.411345 25.884729 4.0907316 0
-36.616703 30.036173 3.6090298 0
-29.45706 24.060444 5.6381936 0
-12.579894 10.3091 -2.7791395 0
-30.784687 24.906847 7.7530046 0
-33.200073 26.736994 9.3490906 0
-34.428974 27.714968 0.29470465 0
-34.964504 28.02704 2.3845155 0
-35.025105 27.947151 2.38392 0
-42.082176 33.410488 1.5425659 0
-37.491528 29.627382 -1.9310122 0
-19.96595 15.723607 -2.6867704 0
-34.656338 27.015774 12.885728 0
-42.287849 32.949558 -2.2054491 0
-30.105185 23.253422 9.2971363 0
-30.110813 23.148361 9.2816067 0
-30.367495 23.239017 8.4111996 0
-30.632286 23.330027 8.465786 0
-38.987534 29.673824 -1.9956679 0
-35.38604 26.812176 0.28715718 0
-37.788067 28.493448 3.5975976 0
-38.386715 28.796276 3.6421311 0
-36.681843 27.403206 1.3508611 0
-37.369987 27.781658 1.3654757 0
-38.105335 28.194206 3.6001444 0
-31.427059 23.151178 4.8373413 0
-30.178034 22.126171 6.4264531 0
-31.443382 22.945925 4.8263149 0
-34.835754 25.291706 6.331748 0
-34.796627 25.141384 6.3111591 0
-34.662796 24.930597 6.2805853 0
-34.884449 24.971409 8.3600874 0
-31.603382 22.51753 8.5238276 0
-31.283016 22.19142 9.3633165 0
-38.545425 27.196682 9.1640997 0
-36.899292 25.900009 6.6131501 0
-37.943935 26.501583 1.3526176 0
-36.613194 25.463636 5.481988 0
-36.693741 25.388823 5.4863896 0
-41.458061 28.535099 7.3463011 0
-33.825813 23.180365 7.0100327 0
-33.281193 22.698195 7.8644609 0
-34.006592 23.085863 7.0240464 0
-42.180248 28.478601 6.2138042 0
-42.245953 28.373703 6.213119 0
-46.006737 30.743826 4.142468 0
-37.078407 24.664839 -0.76322603 0
-11.344711 7.5493298 -2.2931433 0
-42.43457 27.818533 6.1950216 0
-37.456844 24.435982 -1.8154199 0
-33.095806 21.385374 6.7390766 0
-42.444096 27.273542 4.9725122 0
-26.434731 16.9177 -4.141233 0
-11.083192 7.0514188 -2.2045462 0
-15.452941 9.6716919 -2.7258415 0
-10.925323 6.7495809 -2.1453755 0
-28.439327 17.121902 -4.4012022 0
-14.973133 8.9020796 -2.5927515 0
-10.658979 6.2214661 -2.0568247 0
-10.545519 6.0001082 -2.0174084 0
-10.397163 5.758553 -1.9729722 0
-10.263716 5.5320868 -1.9285064 0
-10.145135 5.3257298 -1.8889871 0
-9.9966459 5.099227 -1.8494647 0
-12.99439 6.435029 -2.1172442 0
-9.7740698 4.7417831 -1.7802162 0
-19.673714 9.2755156 -2.7989876 0
-12.508443 5.8106599 -2.0033104 0
-9.5465717 4.3692374 -1.7109817 0
-18.345703 8.1461878 -2.5647435 0
-12.046914 5.2716508 -1.8990736 0
-9.2940035 4.0016003 -1.6416347 0
-17.26651 7.2034454 -2.3753872 0
-11.620094 4.7729154 -1.8047435 0
-9.1061277 3.6793771 -1.5872575 0
-16.246735 6.3511758 -2.1957989 0
-11.267905 4.3296623 -1.7253683 0
-8.9231396 3.3722029 -1.5328124 0
-15.401155 5.6250196 -2.0511508 0
-10.910516 3.9164336 -1.6458343 0
-10.82124 3.8005743 -1.6259865 0
-8.6606407 2.9843059 -1.463394 0
-8.6111641 2.9037018 -1.4485178 0
-14.257166 4.6315107 -1.8515649 0
-14.013279 4.4447937 -1.8115637 0
-8.4427261 2.6568277 -1.4088486 0
-8.4231997 2.5813932 -1.3990283 0
-10.160983 3.0345097 -1.4867362 0
-56.562706 16.282694 -2.5560627 0
-13.267212 3.7840958 -1.6867748 0
-8.1998901 2.3141291 -1.344254 0
-8.165206 2.2637305 -1.3343146 0
-8.0955591 2.2081521 -1.3193029 0
-9.7935705 2.6110606 -1.4070842 0
-9.7139711 2.5454199 -1.3920788 0
-8.0363913 2.0722313 -1.3045365 0
-19.057661 4.7248631 -2.0525177 0
-9.5352354 2.3337188 -1.3572483 0
-55.899555 13.101336 -2.4991167 0
-12.097934 2.8102245 -1.4918061 0
-7.7831712 1.7846789 -1.244702 0
-65.444099 14.260908 4.8471265 0
-65.300758 13.909574 4.8314495 0
-7.6639991 1.6484722 -1.2197698 0
-7.6242776 1.6030631 -1.2097914 0
-16.360809 3.2783179 -1.7052783 0
-16.151457 3.1620052 -1.680102 0
-11.366542 2.1844714 -1.3717561 0
-8.8791742 1.6727699 -1.2274213 0
-8.8344707 1.6223307 -1.2174412 0
-8.779768 1.5718471 -1.2074349 0
-8.7350502 1.5214305 -1.2024543 0
-8.6903429 1.4709948 -1.1924734 0
-14.840752 2.383522 -1.5140835 0
-8.5810165 1.3549414 -1.1724862 0
-57.68763 8.4994583 1.5193615 0
-10.58518 1.5383284 -1.2515323 0
-8.4219456 1.1934452 -1.1424836 0
-10.440858 1.4171703 -1.2264853 0
-10.346167 1.361508 -1.2163872 0
-13.814241 1.7416267 -1.3832682 0
-58.429653 6.9883084 1.5239829 0
-8.2131014 0.99151576 -1.1024435 0
-10.112261 1.1645972 -1.1762904 0
-10.037543 1.114028 -1.1662217 0
-20.11739 2.1028955 -1.6565231 0
-6.9144578 0.73020333 -1.0500894 0
-8.0241594 0.80471534 -1.0673908 0
-7.9793806 0.76431519 -1.0623671 0
-9.7188368 0.87656069 -1.1209949 0
-12.732777 1.0792973 -1.247268 0
-12.613129 1.0135001 -1.2321309 0
-12.508466 0.94778675 -1.2220294 0
-17.691891 1.2445551 -1.4179425 0
-61.108452 3.9217894 -2.7090411 0
-9.3702927 0.60876048 -1.065731 0
-17.083111 1.0061058 -1.3620682 0
-6.6363468 0.39705679 -0.99506152 0
-9.2408867 0.49764135 -1.0456392 0
-16.55423 0.78802019 -1.3063158 0
-62.054287 2.5618429 -2.7540135 0
-7.5318055 0.32499799 -0.9821558 0
-62.37101 2.1519732 -2.7705421 0
-7.4671044 0.26942113 -0.97210646 0
-8.9520569 0.27530518 -1.0053866 0
-15.63123 0.38757136 -1.220013 0
-6.4226375 0.16472897 -0.95495141 0
-7.3327646 0.1481445 -0.9469974 0
-7.2979498 0.11280217 -0.94197595 0
-63.029579 0.45903301 0.13471285 0
-6.3232198 0.058651775 -0.93488896 0
-7.208384 0.031935655 -0.92689049 0
-7.1735659 -0.0034012762 -0.92186964 0
-8.5037479 -0.048307553 -0.93989944 0
-54.048687 -0.70541811 -2.3674846 0
-8.4240341 -0.1039519 -0.9297992 0
-64.266235 -1.2671618 4.6238503 0
-14.014548 -0.28703365 -1.0675558 0
-8.3094015 -0.1748423 -0.91463733 0
-6.1242976 -0.13847382 -0.89470553 0
-20.790657 -0.63080066 -1.2282381 0
-8.2097864 -0.25066906 -0.8995266 0
-20.126265 -0.75402158 -1.1819658 0
-6.8848672 -0.25112852 -0.87654865 0
-10.060497 -0.42896134 -0.92892528 0
-19.237156 -0.93845326 -1.1202629 0
-8.0004759 -0.38733053 -0.87423027 0
-18.787651 -1.0407614 -1.0844042 0
-7.9257398 -0.43795282 -0.85912609 0
-5.9553337 -0.33549798 -0.86454785 0
-27.141899 -1.7621548 -0.41922644 0
-9.7014799 -0.63152522 -0.88838267 0
-5.885601 -0.38613397 -0.85444522 0
-7.7563114 -0.55432528 -0.83888721 0
-12.367734 -0.95696557 -0.914837 0
-5.8109274 -0.44688392 -0.83933532 0
-7.6417069 -0.63527399 -0.82372403 0
-12.073281 -1.0737627 -0.88432586 0
-5.7512393 -0.50755584 -0.82925618 0
-9.242671 -0.87978005 -0.83265245 0
-16.300426 -1.6436542 -0.90964067 0
-6.4118772 -0.64563239 -0.80091441 0
-11.609056 -1.2415507 -0.84346831 0
-5.6567249 -0.60361743 -0.81412649 0
-11.439336 -1.3025681 -0.82815361 0
-6.3222647 -0.7265113 -0.79079008 0
-15.391441 -1.8734407 -0.8478713 0
-8.8636351 -1.0875193 -0.79201043 0
-7.2229905 -0.8986606 -0.76803243 0
-6.2375722 -0.78729963 -0.77564287 0
-5.5422602 -0.70984077 -0.79395616 0
-22.153782 -3.0102165 0.74032503 0
-14.757126 -2.0318162 -0.80659974 0
-10.840277 -1.5111494 -0.77701294 0
-6.1579313 -0.86313021 -0.76552093 0
-21.606386 -3.1928222 -0.79867172 0
-8.5344419 -1.2649096 -0.75642574 0
-5.4277477 -0.80605137 -0.77375138 0
-10.505818 -1.6332154 -0.74635839 0
-8.4097214 -1.3257958 -0.74119258 0
-5.3929629 -0.85151368 -0.76870108 0
-13.798203 -2.2870138 -0.73967326 0
-8.2999697 -1.3816043 -0.73097432 0
-5.9786077 -1.0048628 -0.74020338 0
-64.140007 -11.323203 1.6241397 0
-10.111476 -1.7856916 -0.71058691 0
-5.9188261 -1.0504414 -0.73009157 0
-13.153791 -2.4254301 -0.69330859 0
-8.0804758 -1.4982077 -0.71055686 0
-5.2585711 -0.97801483 -0.748456 0
-9.8369665 -1.9024715 -0.68505096 0
-5.8391919 -1.131332 -0.71994853 0
-64.295906 -12.996936 4.6969137 0
-63.697437 -13.039488 0.11318879 0
-12.509375 -2.5688851 -0.65192235 0
-6.5600743 -1.3543725 -0.68682945 0
-16.798042 -3.5797982 -0.56793332 0
-7.7511625 -1.6555889 -0.67488444 0
-5.6896229 -1.2226534 -0.69963443 0
-63.846249 -14.297127 0.11147134 0
-9.3677731 -2.1005552 -0.64409089 0
-5.6298132 -1.2632157 -0.6895088 0
-11.800019 -2.7327404 -0.60539162 0
-7.5465899 -1.7570857 -0.65447283 0
-6.360673 -1.4911615 -0.66142702 0
-5.5500426 -1.3139225 -0.67935574 0
-17.283066 -4.2201529 1.0603083 0
-11.425337 -2.8147616 -0.57960081 0
-8.9932871 -2.2279153 -0.61330724 0
-8.9633408 -2.243114 -0.61325133 0
-7.3569899 -1.8535118 -0.6340934 0
-5.4553604 -1.3848478 -0.66417336 0
-61.95488 -16.22307 7.5936809 0
-8.7785826 -2.304266 -0.59786415 0
-5.3905168 -1.4203993 -0.65903366 0
-14.29909 -3.8767807 -0.45237991 0
-7.1673808 -1.9499198 -0.61371732 0
-4.8401513 -1.3174398 -0.68760955 0
-8.5489168 -2.390765 -0.57738018 0
-5.3158169 -1.4912308 -0.64888608 0
-4.7703094 -1.3480213 -0.67245662 0
-13.584309 -3.9452155 -0.42073515 0
-8.3691168 -2.4418764 -0.56197834 0
-6.9777737 -2.0513806 -0.59831834 0
-4.7304955 -1.3935312 -0.67237127 0
-8.2442875 -2.4876902 -0.55170763 0
-5.2011814 -1.5773572 -0.63364768 0
-10.161523 -3.146971 -0.4968507 0
-8.1194391 -2.5284986 -0.5414232 0
-5.8520732 -1.8306684 -0.60539091 0
-5.1413517 -1.6179553 -0.62849975 0
-56.708569 -18.358412 4.2936397 0
-12.519696 -4.075458 -0.37328508 0
-7.9196644 -2.5897422 -0.52597797 0
-6.6933422 -2.198602 -0.56768894 0
-6.6633768 -2.2087831 -0.56762707 0
-5.7223778 -1.9067787 -0.59010208 0
-5.0416493 -1.6889403 -0.61327386 0
-5.0116796 -1.6941271 -0.60820544 0
-5.0167241 -1.7091734 -0.61322498 0
-4.5211802 -1.5507226 -0.64189529 0
-11.809862 -4.1389341 -0.34158501 0
-21.165495 -7.494915 -0.30192307 0
-11.679901 -4.154582 -0.33627692 0
-7.5700841 -2.7070298 -0.49517021 0
-6.458786 -2.3204234 -0.547158 0
-7.5051241 -2.717427 -0.48999938 0
-5.5478163 -2.0233355 -0.57471156 0
-4.8920555 -1.7903764 -0.59792089 0
-18.909071 -7.0783329 -0.24609312 0
-11.205055 -4.2169962 -0.31513938 0
-8.9973507 -3.4035718 -0.42412952 0
-7.3303561 -2.7886219 -0.47959301 0
-5.4380379 -2.0792742 -0.55943692 0
-4.3366814 -1.6675569 -0.61643481 0
-44.596661 -17.547285 0.15329021 0
-17.188066 -6.7948923 -0.20166034 0
-56.097881 -22.359982 4.3466139 0
-4.2767825 -1.688062 -0.60627329 0
-4.2718186 -1.6981502 -0.60626328 0
-56.038795 -22.781151 4.3514328 0
-4.256876 -1.7133416 -0.60622084 0
-4.2419047 -1.718474 -0.60118067 0
-55.25246 -22.865393 9.9483938 0
-4.2169609 -1.7336947 -0.60112262 0
-4.2119899 -1.7387966 -0.59609818 0
-42.471958 -17.951782 0.15819006 0
-42.40213 -18.037264 0.15829903 0
-15.247011 -6.5124941 -0.15163347 0
-10.17039 -4.3673816 -0.26760736 0
-8.2678223 -3.5678191 -0.3773441 0
-6.8509383 -2.9719222 -0.44342485 0
-5.8796515 -2.5647464 -0.490738 0
-5.8646669 -2.5698719 -0.49068847 0
-5.0986748 -2.2521169 -0.52358282 0
-4.5329056 -2.0087638 -0.55700016 0
-4.5279393 -2.0188527 -0.55698717 0
-5.0537491 -2.2724955 -0.51846015 0
-5.7697964 -2.6105707 -0.48545185 0
-6.6561255 -3.0332239 -0.42792818 0
-7.917995 -3.6348307 -0.35645828 0
-9.5804834 -4.4303932 -0.24611488 0
-41.770042 -19.478197 0.15891534 0
-12.081148 -5.6472545 1.1769055 0
-4.4281058 -2.0597048 -0.5417136 0
-4.9539266 -2.3233497 -0.50819385 0
-4.9289289 -2.3234985 -0.5081203 0
-4.3931823 -2.08004 -0.53661704 0
-3.9976244 -1.9061447 -0.57551873 0
-9.2054996 -4.4573097 -0.23012915 0
-6.4063644 -3.1149299 -0.40727559 0
-4.8440714 -2.3642266 -0.49788621 0
-3.9126987 -1.9167868 -0.56026578 0
-9.0205784 -4.4983506 -0.21966103 0
-6.296474 -3.155673 -0.40199772 0
-4.7641811 -2.3948579 -0.48767027 0
-3.852807 -1.9423379 -0.55009246 0
-8.8105917 -4.5194383 -0.21410766 0
-6.1915603 -3.1864092 -0.39170226 0
-4.6892819 -2.4254589 -0.48246208 0
-3.8029203 -1.9728453 -0.54494691 0
-8.6106091 -4.5405021 -0.20357361 0
-6.0866508 -3.2221279 -0.38642117 0
-4.61938 -2.4560397 -0.477263 0
-3.738025 -1.9984031 -0.53476799 0
-8.4206257 -4.5615244 -0.19306102 0
-5.9617057 -3.242907 -0.37607571 0
-4.5444703 -2.4816439 -0.46704468 0
-3.6781073 -2.0189302 -0.52958393 0
-23.164101 -12.922773 0.20988092 0
-10.7648 -6.0310926 -0.039787531 0
-8.1506338 -4.5879412 -0.18233773 0
-6.8384972 -3.866308 -0.29359266 0
-5.7868166 -3.2890573 -0.36559662 0
-5.0055699 -2.8561273 -0.41335866 0
-4.4196305 -2.5326736 -0.4566808 0
-3.9739242 -2.2888613 -0.49040708 0
-3.9639401 -2.2939589 -0.49037358 0
-3.6033585 -2.0949109 -0.52433896 0
-3.5783689 -2.0950599 -0.51927447 0
-3.5683858 -2.1001568 -0.51924264 0
-3.9090099 -2.3144035 -0.48521867 0
-3.9090385 -2.3244741 -0.48521152 0
-3.8990541 -2.3295712 -0.48517808 0
-4.2947788 -2.5787032 -0.44130781 0
-4.2848058 -2.5888019 -0.44128445 0
-4.7757049 -2.9027002 -0.39269677 0
-5.4969811 -3.3609946 -0.34477344 0
-5.4719839 -3.3611515 -0.33969721 0
-5.4519935 -3.3662822 -0.33964023 0
-5.4370155 -3.3763995 -0.33960238 0
-7.4706454 -4.6666207 -0.15546507 0
-17.297422 -10.877028 0.22617796 0
-3.453604 -2.1613224 -0.50387585 0
-3.7842188 -2.3806021 -0.47482488 0
-4.1599417 -2.6348047 -0.43091509 0
-6.228642 -3.9699314 -0.26188955 0
-9.5548992 -6.1226659 0.24850434 0
-9.5469894 -6.1367049 1.8435568 0
-3.7442842 -2.4009972 -0.46969244 0
-6.1386333 -3.9704356 -0.25162652 0
-9.5557451 -6.2092547 0.77850616 0
-3.3887222 -2.1969812 -0.49866542 0
-5.2320857 -3.4127469 -0.323993 0
-9.0440121 -5.9438543 -4.6640635e-05 0
-9.3652515 -6.179369 0.509036 0
-9.3659811 -6.2107377 1.034031 0
-3.6643584 -2.4216449 -0.45944384 0
-4.0400848 -2.6858542 -0.42053261 0
-4.5109863 -3.0148473 -0.37189528 0
-5.1171365 -3.4385254 -0.31365249 0
-5.928668 -4.0067253 -0.24101081 0
-6.9456024 -4.7194977 -0.13396594 0
-6.9105911 -4.7196708 -0.13386762 0
-6.8755789 -4.7198439 -0.13376927 0
-6.8455801 -4.7250032 -0.13368937 0
-6.8205681 -4.7251506 -0.13360396 0
-6.8005877 -4.7352972 -0.12854877 0
-6.7705755 -4.7354565 -0.1284574 0
-6.7305636 -4.73564 -0.12835383 0
-5.7036614 -4.0280309 -0.23035112 0
-4.9172125 -3.4848843 -0.303049 0
-4.8972206 -3.4900091 -0.30299458 0
-4.882247 -3.5001328 -0.29795823 0
-4.8672538 -3.5052445 -0.29791006 0
-4.847249 -3.5053685 -0.29784414 0
-4.8322692 -3.5154798 -0.29780784 0
-4.8122644 -3.5156035 -0.29774216 0
-4.7922654 -3.5157385 -0.2926766 0
-4.7772732 -3.5208495 -0.29262879 0
-4.7672925 -3.5309479 -0.29259869 0
-4.7472997 -3.5360706 -0.29254499 0
-4.7222881 -3.5312185 -0.28746149 0
-4.7022834 -3.5313408 -0.28739646 0
-4.6873026 -3.5414507 -0.28736058 0
-4.6773219 -3.5515485 -0.2873306 0
-4.652317 -3.551682 -0.28726014 0
-4.6473236 -3.5567672 -0.28722468 0
-4.6273365 -3.5619001 -0.28217158 0
-4.6023312 -3.5620332 -0.28210136 0
-4.5973496 -3.5721183 -0.28207734 0
-4.5773563 -3.577239 -0.28202441 0
-4.5573454 -3.572371 -0.27694908 0
-4.5523758 -3.5874555 -0.27693632 0
-4.5273585 -3.5825891 -0.27685454 0
-4.5073652 -3.587709 -0.27680203 0
-4.4973831 -3.5978053 -0.27677229 0
-4.4773779 -3.5979249 -0.27670869 0
-3.9513538 -3.1891041 -0.33015427 0
-3.9413626 -3.1941974 -0.3301172 0
-3.9263711 -3.1993024 -0.33007446 0
-3.9113681 -3.1994071 -0.3300207 0
-3.9013824 -3.2045109 -0.32498363 0
-3.8913908 -3.2096038 -0.32494667 0
-3.8713875 -3.2097197 -0.32488754 0
-3.8664191 -3.2248003 -0.32487842 0
-3.8514156 -3.2249062 -0.32482406 0
-3.8364239 -3.2300098 -0.32478163 0
-3.8164151 -3.2251356 -0.31971213 0
-3.8114343 -3.2352164 -0.31969187 0
-3.7964313 -3.2353194 -0.31963965 0
-3.7864511 -3.2454109 -0.31961569 0
-3.7714479 -3.2455137 -0.31956461 0
-3.761456 -3.2506049 -0.31952986 0
-3.7514641 -3.2556961 -0.31949511 0
-3.7364776 -3.2608089 -0.314455 0
-3.7114635 -3.2559338 -0.31438258 0
-3.7014716 -3.2610245 -0.31434801 0
-3.6864793 -3.2661276 -0.3143073 0
-3.6864982 -3.2761958 -0.31429407 0
-3.6614895 -3.2713301 -0.30922219 0
-3.646486 -3.2714314 -0.30917171 0
-3.6314831 -3.2715328 -0.30912134 0
-3.6315238 -3.2916005 -0.30912921 0
-3.6215203 -3.2916903 -0.30908415 0
-3.6015222 -3.2918127 -0.30402866 0
-3.586519 -3.2919133 -0.30397847 0
-4.0224938 -3.711154 -0.24527958 0
-5.2101231 -4.8340116 -0.06883046 0
-15.426733 -14.388587 0.72063738 0
-7.2912078 -6.8182526 1.6599761 0
-2.9302218 -2.7434213 -0.39201626 0
-3.5265453 -3.3123825 -0.30378547 0
-4.4736571 -4.2256956 -0.1666213 0
-7.98631 -7.579093 0.25287142 0
-7.1961565 -6.8487568 1.655261 0
-2.895242 -2.7537549 -0.39188179 0
-3.9025068 -3.7369802 -0.23990592 0
-7.8461642 -7.5496564 0.25327983 0
-7.1261215 -6.8741274 1.6504675 0
-3.1308618 -3.0235381 -0.34758422 0
-5.0000386 -4.8502202 -0.063181102 0
-7.1703768 -6.9923067 0.72530431 0
-3.0908716 -3.0288296 -0.34245875 0
-3.0808804 -3.0339158 -0.34242716 0
-3.0658681 -3.0290139 -0.34236971 0
-3.0708976 -3.0440683 -0.3423734 0
-3.065927 -3.059144 -0.3423669 0
-3.0509248 -3.0592406 -0.34232029 0
-3.0359175 -3.0543468 -0.33726373 0
-3.0159051 -3.0494535 -0.33720234 0
-3.02595 -3.0744874 -0.34223047 0
-3.0059321 -3.0646036 -0.33715931 0
-2.9909301 -3.0646992 -0.33711317 0
-2.9709227 -3.0598149 -0.3320522 0
-2.9809566 -3.079849 -0.33706996 0
-2.9759748 -3.0899239 -0.33705321 0
-2.9459469 -3.0750608 -0.33196244 0
-3.2416542 -3.3996208 -0.28285238 0
-3.6125395 -3.8090501 -0.22397563 0
-4.0435562 -4.2783899 -0.15026733 0
-4.5898643 -4.8825488 -0.051924437 0
-5.3817272 -5.7512765 0.075679928 0
-6.7949877 -7.2938666 0.25640219 0
-11.109742 -11.991027 0.62330669 0
-20.917061 -22.673548 1.653565 0
-2.8409896 -3.1059241 -0.32660678 0
-3.1316984 -3.4405062 -0.27748689 0
-3.4675107 -3.8250222 -0.21849862 0
-3.888535 -4.3094096 -0.13977444 0
-4.3997641 -4.8936515 -0.046316177 0
-5.1365485 -5.7475204 0.081432283 0
-6.4145622 -7.2104306 0.25754535 0
-10.118101 -11.428945 0.60126585 0
-19.900738 -22.581953 1.6214647 0
-2.7560582 -3.1517375 -0.3213 0
-3.0116992 -3.4613998 -0.27207717 0
-3.332504 -3.8509669 -0.20805708 0
-4.2296753 -4.9046226 -0.04078114 0
-9.3717852 -10.931021 0.58351004 0
-19.737288 -23.125902 3.0518472 0
-3.2825062 -3.866327 -0.20789391 0
-3.6534348 -4.3208337 -0.12902054 0
-4.1346264 -4.9101624 -0.035484821 0
-4.8163099 -5.7491708 0.08742705 0
-5.9290166 -7.112463 0.25901797 0
-8.7407017 -10.532834 0.5704062 0
-18.854626 -22.825882 1.5994061 0
-2.6060865 -3.182924 -0.3107852 0
-2.8567212 -3.5026104 -0.26154473 0
-3.1574903 -3.892225 -0.20246732 0
-3.1424928 -3.8973176 -0.2024273 0
-3.1324768 -3.892401 -0.20237386 0
-3.1174834 -3.8975022 -0.19733396 0
-3.1024766 -3.897594 -0.19728541 0
-3.0924788 -3.9026768 -0.19724986 0
-3.077472 -3.9027686 -0.19720128 0
-3.0674744 -3.9078515 -0.19716579 0
-3.0574765 -3.9129338 -0.19713032 0
-3.0374515 -3.9030344 -0.19706032 0
-3.0274627 -3.9131167 -0.19703361 0
-3.0174558 -3.9131989 -0.19698957 0
-3.0024526 -3.9132998 -0.19194072 0
-2.9974635 -3.9233727 -0.19191816 0
-2.9774477 -3.9184725 -0.1918574 0
-2.9674497 -3.9235542 -0.19182217 0
-2.9524515 -3.9286447 -0.19178283 0
-2.9374356 -3.9237349 -0.19172651 0
-2.9274287 -3.9238162 -0.19168288 0
-2.9174304 -3.9288976 -0.19164777 0
-2.9024322 -3.9339871 -0.19160864 0
-2.8874204 -3.9290855 -0.18655273 0
-2.8674047 -3.9241836 -0.18649292 0
-2.8624148 -3.9342556 -0.18647036 0
-2.8524165 -3.9393358 -0.18643561 0
-2.8374095 -3.939425 -0.1863884 0
-2.8324196 -3.9494967 -0.18636575 0
-2.817404 -3.9445856 -0.18631038 0
-3.1232226 -4.3942504 -0.11225718 0
-3.1032169 -4.3943572 -0.10720325 0
-3.4842176 -4.9489226 -0.018371612 0
-3.4692132 -4.9540138 -0.018326104 0
-4.0006146 -5.7383795 0.10002576 0
-4.7425714 -6.8374686 0.26271433 0
-6.2965698 -9.1203585 0.51787519 0
-12.071221 -17.581982 1.2348516 0
-2.2411757 -3.2960038 -0.28947732 0
-2.4316976 -3.5908291 -0.24006304 0
-2.6723635 -3.9705894 -0.18081823 0
-2.973176 -4.4352765 -0.10674888 0
-3.3091047 -4.9649405 -0.012802422 0
-3.8104537 -5.7443757 0.10563272 0
-4.4872622 -6.7935934 0.26352262 0
-5.8307996 -8.8768673 0.50430787 0
-10.793612 -16.514975 1.1637487 0
-2.5623176 -3.9813349 -0.17543882 0
-3.1840124 -4.9706669 -0.0073859394 0
-4.3170667 -6.774353 0.26405448 0
-5.5503526 -8.7528343 0.50017792 0
-15.501578 -24.559923 2.2588813 0
-2.2766831 -3.6270092 -0.2295197 0
-2.7780564 -4.4464808 -0.1010921 0
-3.5752349 -5.7506142 0.1064011 0
-5.3500223 -8.6535101 0.49580249 0
-15.201185 -24.700979 2.2597404 0
-2.2417147 -3.6673582 -0.23439482 0
-2.7180328 -4.4618926 -0.095885366 0
-4.0867953 -6.7503958 0.26478514 0
-15.181452 -25.186512 2.2847223 0
-2.4022598 -4.0074587 -0.16488031 0
-3.4250913 -5.746376 0.11188118 0
-8.799509 -14.8297 1.054868 0
-2.3572524 -4.0227699 -0.1647346 0
-2.9238265 -5.0022202 -0.0015116632 0
-3.9215958 -6.7411828 0.2653299 0
-8.3886776 -14.510718 1.0311321 0
-2.3022218 -4.0281539 -0.16453418 0
-2.8487675 -5.0076461 -0.0012654066 0
-3.806458 -6.7266865 0.26568761 0
-8.0028944 -14.211688 1.0123262 0
-2.2421942 -4.0335512 -0.15933117 0
-2.7787161 -5.0180588 -0.0010322034 0
-3.706336 -6.7221613 0.26601654 0
-7.6120996 -13.892644 0.99352372 0
-2.1971843 -4.053915 -0.15916073 0
-2.708667 -5.0284753 0.0041992664 0
-3.591193 -6.7026515 0.26637217 0
-7.2413282 -13.578554 0.97467697 0
-2.1421595 -4.0642915 -0.15897027 0
-2.6386001 -5.0288825 0.0044438243 0
-3.4960642 -6.69311 0.26669899 0
-6.910645 -13.314388 0.95570958 0
-2.0821233 -4.0646777 -0.15376496 0
-2.5685403 -5.0342846 0.0046788156 0
-3.3809092 -6.663589 0.26706016 0
-6.5799618 -13.040206 0.93673372 0
-2.0270841 -4.0650482 -0.15356365 0
-2.4984796 -5.0396838 0.0049128532 0
-3.2857888 -6.6590371 0.26737314 0
-6.2542887 -12.761008 0.92274034 0
-1.9770648 -4.0804081 -0.15338692 0
-2.4234159 -5.0400915 0.010153592 0
-3.180656 -6.6444912 0.26770064 0
-5.9486361 -12.48676 0.90370393 0
-1.9270511 -4.1007652 -0.15321746 0
-2.3583617 -5.0504756 0.010373712 0
-3.0805171 -6.6249352 0.26802868 0
-5.67307 -12.267467 0.88956189 0
-1.8770236 -4.1111217 -0.15303513 0
-2.293294 -5.0508575 0.010605872 0
-2.9803858 -6.6103725 0.26834586 0
-5.4025168 -12.048151 0.87539673 0
-1.8219922 -4.1164861 -0.14784569 0
-2.2232268 -5.0512414 0.010837972 0
-2.8852556 -6.5957985 0.26865679 0
-5.1469698 -11.823805 0.86121142 0
-1.7669576 -4.1218419 -0.1476576 0
-2.153156 -5.046627 0.016073972 0
-2.7901199 -6.5762191 0.26896995 0
-4.8713751 -11.549468 0.84707654 0
-1.7119229 -4.1271935 -0.14747107 0
-2.0881004 -5.0569973 0.016287506 0
-2.7000089 -6.5766292 0.26925388 0
-4.6007948 -11.275113 0.83291841 0
-1.6669019 -4.1425376 -0.14230207 0
-2.0180151 -5.0423708 0.016532183 0
-2.6048677 -6.5520415 0.26956877 0
-4.3903613 -11.115684 0.82358611 0
-1.6118642 -4.1478868 -0.1421138 0
-1.9579684 -5.0627298 0.01673311 0
-2.509733 -6.5324488 0.26987699 0
-4.1849422 -10.961236 0.81423521 0
-1.7223425 -4.5881248 -0.072480828 0
-2.9010894 -7.7574654 0.46355063 0
-7.8614559 -21.153564 1.8317717 0
-1.3963832 -3.7985137 -0.20136943 0
-1.682319 -4.6083975 -0.072339684 0
-2.0736001 -5.7132487 0.13133621 0
-2.7858968 -7.7178884 0.45892251 0
-7.3752723 -20.559435 1.7833073 0
-1.3563709 -3.8188362 -0.20121765 0
-1.622254 -4.5987506 -0.067123026 0
-2.0035169 -5.7186122 0.13157509 0
-2.675709 -7.6783042 0.45928636 0
-6.8940797 -19.92527 1.7298372 0
-1.3063368 -3.8191671 -0.2010406 0
-1.5672081 -4.6090899 -0.066930652 0
-1.9284177 -5.7089777 0.13183099 0
-2.5655258 -7.6437101 0.4546417 0
-6.4680362 -19.401037 1.686191 0
-1.2613046 -3.8194964 -0.19586617 0
-1.507151 -4.6094327 -0.066726178 0
-1.8533294 -5.7093387 0.13207388 0
-2.4653673 -7.6291037 0.45496771 0
-6.0369797 -18.831785 1.6425514 0
-1.2162852 -3.8348172 -0.19570804 0
-1.4520992 -4.6147661 -0.066530883 0
-1.7832361 -5.7046905 0.13231766 0
-2.3601999 -7.6044965 0.45530206 0
-5.6861362 -18.447447 1.6086651 0
-1.1712552 -3.8401363 -0.1955401 0
-1.3970516 -4.6250978 -0.066340327 0
-1.7081429 -5.7000446 0.1325627 0
-3.0175593 -10.119453 0.76296282 0
-1.2365805 -4.1903491 -0.13576755 0
-1.9038934 -6.5001583 0.27187335 0
-1.1162275 -3.855516 -0.19534805 0
-1.8688351 -6.4853024 0.27199334 0
-1.1012181 -3.8606386 -0.19528541 0
-1.8387954 -6.4904423 0.27209276 0
-1.0761994 -3.8557701 -0.19521004 0
-1.8037506 -6.4905868 0.2721993 0
-1.0611942 -3.8658934 -0.19515142 0
-2.0647199 -7.5506234 0.45126107 0
-2.2308333 -8.2017298 1.8756266 0
-1.2519046 -4.6259508 -0.060825914 0
-12.847186 -47.741089 6.0074329 0
-1.7236356 -6.4859352 0.27246347 0
-1.1064831 -4.2111802 -0.13031122 0
-2.5766823 -9.8557119 0.74436843 0
-1.1868302 -4.6062784 -0.060610443 0
-1.9295013 -7.5261312 0.45169607 0
-1.0614504 -4.2264886 -0.13014525 0
-1.2622066 -5.071507 0.02911824 0
-1.5984582 -6.4864821 0.27287498 0
-2.3762739 -9.7162724 0.73501235 0
-1.0063922 -4.2118034 -0.12995106 0
-1.2021406 -5.0768261 0.02932173 0
-1.5183395 -6.47682 0.27313805 0
-3.7915976 -16.310976 1.4346453 0
-1.0517102 -4.6420903 -0.060139924 0
-1.2775819 -5.6821208 0.13901469 0
-1.6590569 -7.4621186 0.45256102 0
-3.525954 -15.991464 1.4104892 0
-0.84103692 -3.8823683 -0.18935585 0
-1.0016638 -4.6573963 -0.059961081 0
-1.2124977 -5.6874394 0.13923576 0
-1.5689124 -7.4574542 0.44784859 0
-5.6643658 -27.13122 2.8420997 0
-0.95662117 -4.662642 -0.059812337 0
-1.3180523 -6.4776721 0.27379054 0
-3.1350214 -15.557195 1.3767221 0
-0.83624649 -4.2228417 -0.1243566 0
-1.1173749 -5.68788 0.13954806 0
-1.8352305 -9.4528313 0.72171402 0
-0.95685333 -5.068079 0.035148591 0
-1.3936173 -7.4331121 0.44842452 0
-5.0681419 -27.357269 2.853755 0
-0.84650254 -4.6582513 -0.054430693 0
-1.1628172 -6.4583097 0.27429873 0
-4.9228997 -27.607559 2.8741186 0
-0.88677257 -5.0734406 0.035385266 0
-2.5937467 -14.983212 1.3334157 0
-0.86173791 -5.0635614 0.035471901 0
-1.5747292 -9.3485851 0.71253425 0
-0.82670212 -5.0737405 0.035585165 0
-1.1932943 -7.4038196 0.44904971 0
-4.3013554 -26.983383 2.8109927 0
-0.72637129 -4.653903 -0.054017842 0
-0.99757832 -6.4639878 0.27482891 0
-2.222867 -14.593913 1.3045846 0
-0.63105714 -4.229074 -0.12363386 0
-0.83700246 -5.6841588 0.14047094 0
-1.3442981 -9.2742434 0.7082442 0
-0.71156466 -5.0793257 0.035975084 0
-1.0180115 -7.3894372 0.44959655 0
-3.6800117 -27.039299 2.8077104 0
-0.6212666 -4.6744804 -0.053663224 0
-0.84735501 -6.4595885 0.27531001 0
-1.8369746 -14.229639 1.2757787 0
-0.53096801 -4.2346454 -0.12329689 0
-0.70182675 -5.6847472 0.14089997 0
-1.128901 -9.2448721 0.70890844 0
-0.59141558 -5.0649023 0.036373094 0
-0.84773493 -7.3850341 0.45012885 0
-3.0536051 -26.985147 2.7994621 0
-0.51114696 -4.6700487 -0.053297877 0
-0.69712955 -6.4501729 0.27578643 0
-1.4711415 -13.900321 1.2518948 0
-0.43587434 -4.2302074 -0.11795992 0
-0.57165104 -5.685318 0.14132172 0
-0.91350627 -9.2154751 0.70455956 0
-0.47627541 -5.0654635 0.036755756 0
-0.67745316 -7.3706107 0.44565752 0
-2.4422863 -27.100931 2.8060997 0
-0.40102145 -4.6506085 -0.047930121 0
-0.54691046 -6.4507394 0.27624935 0
-1.1253407 -13.560953 1.2229583 0
-0.33578455 -4.2357574 -0.11763141 0
-0.44147399 -5.6808772 0.14674008 0
-0.69810677 -9.1660576 0.70520699 0
-0.35613391 -5.0610166 0.04213649 0
-0.50718254 -7.3761716 0.44616881 0
-1.8359869 -27.291649 2.8176908 0
-0.29591277 -4.6711502 -0.052586764 0
-0.40169483 -6.4612899 0.27670178 0
-0.79959399 -13.261549 1.2039534 0
-0.24069844 -4.2512941 -0.11731225 0
-0.31130081 -5.686419 0.14714716 0
-0.48270395 -9.0966158 0.70084715 0
-0.24099769 -5.0715518 0.042504728 0
-0.34190774 -7.3717122 0.44667566 0
-1.2146376 -27.402308 2.8293054 0
-0.19079648 -4.6716838 -0.047238946 0
-0.25147286 -6.4568257 0.27715459 0
-0.4838928 -12.997108 1.1848881 0
-0.14560178 -4.2418218 -0.11698642 0
-0.1811232 -5.6819477 0.14755334 0
-0.27231321 -9.0371475 0.69646478 0
-0.1258603 -5.0820761 0.042869061 0
-0.17163333 -7.3672371 0.4471755 0
-0.5932849 -27.542896 2.8408954 0
-0.085677706 -4.6672049 -0.046894193 0
-0.10625434 -6.4623442 0.27759674 0
-0.18824218 -12.80263 1.1707579 0
-0.04550913 -4.2423406 -0.11666819 0
-0.050950427 -5.6924629 0.14794889 0
-0.066924639 -8.9626589 0.69707143 0
-0.010593324 -4.6575618 -0.046654671 0
-0.00088018487 -5.6926637 0.1481061 0
0.013666272 -7.3677926 0.44771397 0
0.047268718 -12.623027 1.1614354 0
0.04435128 -5.0828371 0.043410704 0
0.078775071 -7.3679881 0.447907 0
0.34351185 -28.273977 4.2481337 0
0.09905266 -6.4680438 0.27820578 0
0.41981724 -24.478666 2.5592926 0
0.094520926 -4.6680636 -0.046322405 0
0.1441187 -6.4681897 0.27833492 0
0.29781514 -12.463446 1.147158 0
0.11464924 -4.2381949 -0.11613792 0
0.1643521 -5.6783051 0.14861616 0
0.27371129 -8.8734751 0.69305664 0
0.18452159 -5.0784273 0.043837294 0
0.27910203 -7.3685608 0.44848049 0
0.96608216 -24.314075 2.5457201 0
0.19963951 -4.6585536 -0.045990676 0
0.28933999 -6.4636664 0.27876204 0
0.57839698 -12.328887 1.1429261 0
0.21474086 -4.2436852 -0.11583272 0
0.29452777 -5.6737819 0.14899844 0
0.47907034 -8.8639269 0.69360936 0
0.29966313 -5.073905 0.044186503 0
0.44937569 -7.3590183 0.44895148 0
1.487373 -23.779421 2.5021467 0
0.30975485 -4.6690335 -0.045666546 0
0.43956247 -6.4441276 0.27918416 0
0.85396117 -12.229299 1.133664 0
