# .PCD v0.7 - Point Cloud Data file format
VERSION 0.7
FIELDS x y z intensity
SIZE 4 4 4 4
TYPE F F F F
COUNT 1 1 1 1
WIDTH 1374
HEIGHT 1
VIEWPOINT 0 0 0 1 0 0 0
POINTS 1374
DATA ascii
-30.299023 33.016724 3.6323338 0
-8.4042263 9.2783203 -1.7106215 0
-30.448345 33.024181 -1.587903 0
-32.134888 34.688034 8.2839432 0
-8.4292498 9.2181635 -1.7061237 0
-15.750511 17.001432 -2.3162689 0
-30.323355 32.446518 -0.5324111 0
-32.888912 35.018608 0.51558483 0
-32.889442 34.856583 4.9843941 0
-8.4742994 9.1028872 -1.702089 0
-11.739832 12.484813 -2.0433433 0
-31.209848 32.652321 11.203712 0
-11.759846 12.394662 -2.0390861 0
-6.8040833 7.2116823 -1.5355144 0
-37.675243 38.837543 6.8563671 0
-33.263817 34.150517 1.6132123 0
-31.33886 32.038948 4.6733465 0
-36.320171 36.942207 9.037612 0
-11.829887 12.134173 -2.0212326 0
-16.645599 16.931057 -2.3827581 0
-8.5694389 8.7620173 -1.6748878 0
-16.745609 16.885973 -2.3882246 0
-31.758636 31.741253 3.6304927 0
-33.27441 33.103542 8.2099571 0
-8.614481 8.6868 -1.6705215 0
-11.85993 11.843657 -1.9985733 0
-35.978916 35.449471 1.6858099 0
-35.189636 34.515499 8.6093187 0
-32.294384 31.550373 10.08871 0
-37.073547 36.18465 -1.8945043 0
-35.708622 34.707767 0.51012576 0
-31.938189 30.906103 1.513593 0
-30.493582 29.401558 6.4231353 0
-11.904978 11.568142 -1.9757941 0
-31.97814 30.671066 1.5116739 0
-30.103338 28.754326 5.3283472 0
-29.468586 28.029671 8.1233807 0
-17.31566 16.530409 -2.4116035 0
-33.03294 31.245546 -0.56983662 0
-32.833149 30.920763 1.5278236 0
-31.063635 29.139139 7.4655166 0
-32.674133 30.501249 9.979969 0
-32.80954 30.502682 13.329921 0
-30.623268 28.4641 5.3455334 0
-6.9944906 6.6198134 -1.4903196 0
-39.393406 36.394596 -1.9801171 0
-31.028156 28.585674 4.4010806 0
-33.7239 30.905134 7.9969993 0
-27.888134 25.473837 7.5595884 0
-28.118496 25.568926 10.395192 0
-30.918072 28.090961 4.3572755 0
-8.7397575 8.0502367 -1.6206216 0
-28.298483 25.49876 10.419473 0
-36.763355 33.064339 1.6410791 0
-35.899063 32.142094 8.4047623 0
-28.728161 25.637766 7.7001185 0
-8.7498159 7.9149003 -1.6066817 0
-12.005145 10.751678 -1.9172945 0
-36.908119 32.597279 0.49222514 0
-33.633381 29.586231 5.7016058 0
-7.0596976 6.33392 -1.4675884 0
-30.43354 26.541424 10.020745 0
-34.928226 30.43993 3.7171073 0
-28.823067 25.033255 7.6302648 0
-30.50351 26.36656 10.004303 0
-37.39817 32.279171 1.6343095 0
-34.18346 29.378496 6.8045154 0
-28.93803 24.783333 7.618207 0
-7.0898037 6.1884584 -1.4537283 0
-8.7749662 7.5891128 -1.5792251 0
-12.040253 10.305846 -1.8807921 0
-20.155918 17.070732 -2.699894 0
-34.547874 29.012831 2.5712306 0
-7.124877 6.1031828 -1.4494052 0
-29.438223 24.52515 9.5157986 0
-35.427784 29.484871 1.5391321 0
-7.1249127 6.0530305 -1.444792 0
-33.0439 27.267517 12.744222 0
-34.088123 28.121729 5.6197228 0
-12.055322 10.040376 -1.8628578 0
-35.017303 28.731867 -1.6464593 0
-34.133087 27.886837 5.6028662 0
-29.9981 24.416105 8.6544619 0
-33.712296 27.424377 -0.55553603 0
-36.082985 29.209721 3.7114859 0
-7.150022 5.9075718 -1.430916 0
-12.04038 9.7949324 -1.839731 0
-30.663465 24.500137 11.694639 0
-36.427952 29.069574 3.7251232 0
-8.8401937 7.1680603 -1.5474992 0
-37.572365 29.83725 -1.7649822 0
-30.942778 24.489485 5.9790983 0
-12.01043 9.5945787 -1.8212478 0
-35.837589 28.204756 1.5188409 0
-33.67313 26.388988 7.4766555 0
-31.108446 24.284817 11.752611 0
-39.493252 30.779558 5.1459332 0
-30.128092 23.410566 9.4715767 0
-31.103416 24.05015 11.710805 0
-37.00761 28.579414 1.5458125 0
-36.392803 27.979916 3.6667128 0
-7.1852293 5.6417499 -1.4079498 0
-32.488285 24.766006 10.120214 0
-36.817165 28.036568 -1.6983025 0
-36.86779 27.944693 3.6910756 0
-38.728184 29.212904 6.1294641 0
-36.21809 27.203388 6.8159351 0
-8.8704157 6.7670383 -1.5105578 0
-32.388092 24.113636 9.0152464 0
-31.243319 23.156242 11.578815 0
-35.602383 26.359837 1.4748055 0
-44.348511 32.647221 6.9166121 0
-8.8604841 6.6367431 -1.501534 0
-32.818203 23.966555 10.058831 0
-36.462269 26.601727 0.44600683 0
-40.393021 29.329714 5.1190877 0
-8.8655386 6.546504 -1.4922136 0
-36.622131 26.473812 -0.60511947 0
-40.367847 29.027746 3.936775 0
-7.2305021 5.3157215 -1.380417 0
-41.223286 29.35301 7.5787287 0
-37.282246 26.436562 0.44414634 0
-33.388046 23.473156 9.0996304 0
-7.2256021 5.1903267 -1.3663466 0
-8.8707218 6.2457633 -1.4694611 0
-8.8607588 6.180583 -1.4599398 0
-11.800905 8.0667782 -1.6826506 0
-7.2458062 4.9596057 -1.3480577 0
-11.775987 7.8563728 -1.664199 0
-7.2509098 4.8442469 -1.3389047 0
-11.741072 7.6459694 -1.6457367 0
-8.8410501 5.7344294 -1.4182159 0
-18.426268 11.619192 -2.2001657 0
-8.8361492 5.5890779 -1.4092729 0
-18.251328 11.218691 -2.1630197 0
-8.8162508 5.4386959 -1.3953546 0
-39.191704 23.337074 -2.7703826 0
-11.606378 6.9396195 -1.5858347 0
-7.3063822 4.3726959 -1.3023378 0
-11.546474 6.7241855 -1.562362 0
-7.3314924 4.2723722 -1.2980614 0
-11.48157 6.518785 -1.5438135 0
-7.3166041 4.1570153 -1.2888749 0
-11.43167 6.3183823 -1.5252253 0
-7.3167167 4.0466599 -1.279652 0
-11.366772 6.1179824 -1.506626 0
-7.331831 3.9513044 -1.2703282 0
-11.356875 5.9426126 -1.4928619 0
-7.3369465 3.8459811 -1.2660639 0
-11.326982 5.7672443 -1.4790875 0
-7.3320627 3.7356265 -1.2568263 0
-11.272089 5.5818434 -1.4603676 0
-7.3221803 3.6302714 -1.2475512 0
-11.222199 5.401475 -1.4466076 0
-7.3022995 3.5148859 -1.2333345 0
-11.167312 5.2210755 -1.427839 0
-7.27742 3.4045308 -1.2240803 0
-16.137327 7.2630653 -1.7554059 0
-8.6975193 3.9245849 -1.2709529 0
-16.022444 6.9976368 -1.7322006 0
-11.037596 4.7951469 -1.3907161 0
-7.2427206 3.1536598 -1.200762 0
-15.80261 6.6020021 -1.6948404 0
-8.62782 3.6136923 -1.2430301 0
-8.6128702 3.5635438 -1.2383623 0
-8.6079206 3.5133955 -1.2336947 0
-15.477832 6.1011295 -1.6381458 0
-8.5630484 3.3830383 -1.22455 0
-15.277959 5.8206334 -1.6049773 0
-8.5281782 3.2576513 -1.2103695 0
-7.1382623 2.7120938 -1.1536534 0
-7.1433134 2.676976 -1.1538829 0
-7.1533656 2.6418562 -1.1541123 0
-14.818244 5.2345824 -1.5387701 0
-10.658406 3.7426884 -1.2976489 0
-7.1335497 2.5063472 -1.1399827 0
-10.593538 3.5873082 -1.2836493 0
-7.1086831 2.4059863 -1.1306206 0
-14.438562 4.6635098 -1.4774363 0
-8.368783 2.7109594 -1.1588848 0
-14.293697 4.4380765 -1.453871 0
-8.3389168 2.5956051 -1.1496136 0
-63.798321 18.627258 5.0282564 0
-14.103888 4.1325011 -1.4258035 0
-10.359047 3.0158763 -1.2322756 0
-10.349102 2.9607315 -1.2276227 0
-8.2592144 2.3448367 -1.1311803 0
-13.854137 3.7567494 -1.3881568 0
-10.254294 2.7602043 -1.2088705 0
-8.2244062 2.1943345 -1.1171116 0
-8.2044611 2.1491859 -1.1123879 0
-64.588806 15.707739 5.0091629 0
-57.953701 13.811859 1.7331942 0
-6.9446588 1.7334428 -1.0697858 0
-8.149682 1.9786235 -1.098428 0
-10.074685 2.3691511 -1.1712706 0
-20.744444 4.6683097 -1.6885118 0
-64.524124 13.983142 4.9682117 0
-6.9049072 1.5778461 -1.0607198 0
-8.074935 1.7829711 -1.0796053 0
-9.9549408 2.1285071 -1.1527243 0
-9.9399967 2.0783625 -1.1480261 0
-19.739792 3.9320302 -1.5879328 0
-6.8351617 1.4121844 -1.0416987 0
-19.524887 3.7467086 -1.5640403 0
-8.0002174 1.5772908 -1.0658273 0
-9.8102283 1.8677427 -1.1242775 0
-56.914536 10.052012 1.6647682 0
-6.8103867 1.2816474 -1.0324627 0
-7.9354177 1.4367856 -1.0516503 0
-12.770355 2.1883926 -1.2376738 0
-12.715417 2.1182179 -1.2280861 0
-18.415339 2.9351938 -1.4538233 0
-6.7556434 1.1260186 -1.0183607 0
-7.8556771 1.2561326 -1.0326965 0
-9.5706949 1.4665668 -1.0866215 0
-17.945566 2.569515 -1.4109528 0
-17.855629 2.4743433 -1.4015069 0
-17.735697 2.3741381 -1.3870859 0
-17.59576 2.2789578 -1.3776324 0
-7.7559967 1.040361 -1.013927 0
-7.7260547 1.0052111 -1.0091237 0
-17.310923 2.043489 -1.3489828 0
-6.6261611 0.82975984 -0.99003196 0
-7.681201 0.90985548 -0.99965906 0
-17.016088 1.8130175 -1.3202937 0
-6.601306 0.74943137 -0.98547792 0
-9.2713203 0.97003669 -1.0394436 0
-16.741253 1.5925466 -1.291539 0
-62.38559 5.3773479 -2.6239538 0
-7.591496 0.72417194 -0.98568869 0
-37.086147 2.9814744 -1.4504175 0
-9.1715612 0.78947955 -1.0254472 0
-62.420864 4.5222664 -2.6289229 0
-9.1316528 0.7242437 -1.015806 0
-6.5067167 0.52844238 -0.96168315 0
-9.0917444 0.65903765 -1.011163 0
-62.941143 3.6873803 -2.6537769 0
-7.481853 0.50833923 -0.96686327 0
-9.006897 0.54868144 -1.0017623 0
-32.136757 1.5638258 -1.2230686 0
-6.4370108 0.37775376 -0.94748724 0
-8.942049 0.44332713 -0.99233031 0
-15.472055 0.62541455 -1.1768765 0
-6.4021597 0.30242223 -0.94288421 0
-8.8822031 0.337975 -0.9828943 0
-61.881901 1.5066929 -2.6160355 0
-7.3373041 0.24729678 -0.94325066 0
-11.237344 0.27348909 -1.0484394 0
-61.192169 0.79629236 -2.5849364 0
-8.7724495 0.17741255 -0.96874118 0
-66.837975 0.4201059 4.9426017 0
-11.062536 0.11801177 -1.0292579 0
-14.727595 0.064050592 -1.1098698 0
-62.652969 -0.32261419 1.7188241 0
-7.2676983 0.026440494 -0.92940116 0
-10.892762 -0.052520625 -1.0101455 0
-55.087875 -0.90170455 -2.3087308 0
-8.5928555 -0.08350537 -0.94509411 0
-55.053036 -1.2767718 -2.3107631 0
-14.277969 -0.29686472 -1.0667509 0
-8.5379801 -0.15880062 -0.9354769 0
-54.898247 -1.7719115 -2.3084207 0
-10.628086 -0.2932941 -0.98137879 0
-6.2130899 -0.14964715 -0.9101944 0
-13.968209 -0.51243532 -1.0428506 0
-7.0731893 -0.22970133 -0.9006871 0
-55.018635 -2.6520009 -2.3181388 0
-10.448314 -0.45383149 -0.96218646 0
-7.0433135 -0.29496869 -0.89601171 0
-22.238665 -1.2182125 0.26265877 0
-55.093914 -3.2820759 -2.3264818 0
-13.583517 -0.77819228 -1.0091842 0
-6.1234546 -0.31546617 -0.89600444 0
-10.263576 -0.63444269 -0.94308233 0
-20.028784 -1.4163318 -1.1481558 0
-6.9436231 -0.45067501 -0.8817687 0
-10.143739 -0.74484503 -0.92862177 0
-19.62397 -1.6118536 -1.1191097 0
-8.1838017 -0.64064777 -0.89285934 0
-64.570251 -5.9326 1.7388031 0
-10.008935 -0.87031102 -0.91422582 0
-19.144192 -1.8374487 -1.0901958 0
-6.8489637 -0.61641842 -0.87255764 0
-9.8990974 -0.9756844 -0.90472949 0
-18.774376 -2.0129383 -1.0660284 0
-6.7991199 -0.69178659 -0.86291087 0
-12.599335 -1.4102491 -0.92722929 0
-5.9291883 -0.63214254 -0.86748958 0
-7.934309 -0.91182739 -0.86413348 0
-18.054667 -2.2688086 -1.0172017 0
-6.7193694 -0.80734497 -0.85344279 0
-9.6045218 -1.2316809 -0.87592208 0
-17.649847 -2.4193101 -0.99288082 0
-6.6995249 -0.88265294 -0.8537904 0
-9.5146856 -1.3320503 -0.86638582 0
-17.230026 -2.5598443 -0.96349978 0
-9.439784 -1.3872997 -0.85663378 0
-6.6047125 -0.9631204 -0.83914483 0
-17.195305 -2.7136769 0.66078782 0
-17.19528 -2.7544386 -0.1494194 0
-17.185287 -2.7973247 -0.55963111 0
-7.6399131 -1.218224 -0.83051896 0
-16.660353 -2.8256607 -0.92968392 0
-6.5249624 -1.0736775 -0.82963276 0
-9.2201452 -1.5931091 -0.83755374 0
-16.34053 -2.9611208 -0.9102689 0
-6.4851198 -1.1440183 -0.82494116 0
-9.1103077 -1.6834842 -0.82794857 0
-16.005709 -3.0865848 -0.89079559 0
-7.4253263 -1.4091898 -0.80634093 0
-15.825816 -3.1668479 -0.88113713 0
-6.3853693 -1.2445824 -0.81536341 0
-11.21069 -2.298502 -0.81619632 0
-5.6104221 -1.1249098 -0.82464516 0
-8.8706675 -1.8693265 -0.80373693 0
-63.379482 -14.110303 7.7837906 0
-7.2656775 -1.5699711 -0.79201818 0
-15.20621 -3.4428256 -0.84228027 0
-7.2207732 -1.6101888 -0.78718174 0
-10.856064 -2.5143869 -0.78709316 0
-5.4957619 -1.2456928 -0.81013155 0
-8.6260271 -2.0451469 -0.78445661 0
-5.4658556 -1.28091 -0.80527425 0
-8.571126 -2.0953646 -0.77966285 0
-5.440949 -1.3161258 -0.80041647 0
-7.0611238 -1.7609959 -0.76779008 0
-10.551436 -2.725234 -0.76294959 0
-5.3961043 -1.3714707 -0.79563391 0
-8.4163866 -2.2159579 -0.76513827 0
-14.271889 -3.8844147 -0.78903139 0
-6.02631 -1.6117327 -0.77183962 0
-8.3115511 -2.2913332 -0.75543106 0
-14.137073 -4.0197811 -0.77958691 0
-5.9714675 -1.6720767 -0.76707327 0
-10.186874 -2.9512155 -0.73882055 0
-5.931561 -1.7022965 -0.76218128 0
-8.1518126 -2.4119287 -0.7408936 0
-13.792358 -4.1954265 -0.7602483 0
-5.876719 -1.7626407 -0.75741112 0
-8.0569763 -2.4822769 -0.73615408 0
-13.49753 -4.2758641 -0.74550366 0
-5.8318763 -1.8179835 -0.7526139 0
-9.80231 -3.1572306 -0.70956671 0
-5.7769704 -1.8482311 -0.74271786 0
-12.427773 -4.1145473 0.86555171 0
-13.23278 -4.4214087 -0.73103023 0
-7.8673034 -2.6230004 -0.72166657 0
-5.7221279 -1.9035755 -0.73791683 0
-5.0570922 -1.6837528 -0.75176215 0
-6.547276 -2.2235589 -0.71953487 0
-6.5273061 -2.2286248 -0.7195425 0
-5.0121856 -1.7089754 -0.74684262 0
-56.582623 -20.294128 0.16756672 0
-7.7075629 -2.7235978 -0.70700824 0
-12.823174 -4.6472464 -0.71182799 0
-6.4325309 -2.3141246 -0.70984399 0
-4.9524031 -1.7794464 -0.74208903 0
-7.5927601 -2.8040376 -0.69728565 0
-4.9274969 -1.8096617 -0.73719347 0
-6.3327203 -2.3745644 -0.7000345 0
-9.133111 -3.5040481 -0.66572809 0
-6.2978168 -2.4097803 -0.69515419 0
-12.268588 -4.8282604 -0.67734993 0
-6.252913 -2.4449744 -0.69527233 0
-12.133692 -4.8734951 -0.67247796 0
-5.392909 -2.1453657 -0.7037034 0
-11.983791 -4.903759 -0.66253114 0
-6.1531034 -2.505415 -0.68545687 0
-23.165312 -9.7342348 -0.95163238 0
-7.2583461 -3.0253308 -0.67299879 0
-4.7330518 -1.9609205 -0.71765661 0
-8.7386456 -3.7252245 -0.64142156 0
-5.2532187 -2.2260895 -0.68892705 0
-11.574136 -5.0495481 -0.64292645 0
-5.9934196 -2.6011393 -0.67073452 0
-21.765642 -9.7304707 -0.89102435 0
-7.0736723 -3.1410575 -0.65834618 0
-4.6483655 -2.0566089 -0.70796168 0
-8.4989815 -3.8559821 -0.62180483 0
-5.1435342 -2.3217814 -0.67921758 0
-11.214486 -5.2003269 -0.62333715 0
-5.8487396 -2.7018611 -0.65602899 0
-4.5685806 -2.1071107 -0.69809091 0
-9.6247187 -4.5801625 4.4348931 0
-4.5636449 -2.1322351 -0.69817936 0
-5.0587535 -2.3822832 -0.66938496 0
-6.8440614 -3.2669423 -0.6386888 0
-9.679759 -4.6888127 3.0794373 0
-8.2243462 -3.981787 -0.6071285 0
-9.6046038 -4.6869259 -0.50053549 0
-9.6247797 -4.7227201 1.7643459 0
-4.4938293 -2.1726501 -0.69327295 0
-5.6990566 -2.7925849 -0.6412679 0
-9.4947176 -4.718317 -0.25059381 0
-9.6748734 -4.8304825 1.2639086 0
-5.6791205 -2.8127122 -0.64132488 0
-9.4497871 -4.7484684 -0.24567941 0
-9.6449003 -4.8719797 0.49876103 0
-9.5299349 -4.8432498 0.74893403 0
-4.4340162 -2.2230611 -0.68841267 0
-4.4340482 -2.2331235 -0.68844378 0
-9.4149885 -4.8649158 -0.001086086 0
-9.414999 -4.8926444 -0.49619427 0
-6.5745478 -3.418021 -0.6190722 0
-4.8692899 -2.5334518 -0.65479887 0
-9.4151831 -5.0051932 -0.0016049743 0
-9.4051914 -5.0279112 -0.50168812 0
-6.4797077 -3.4633739 -0.61417258 0
-4.8044448 -2.5688245 -0.64487374 0
-9.4603729 -5.1692672 -0.25723395 0
-6.3898358 -3.4936907 -0.60422254 0
-4.2944832 -2.3390999 -0.67370498 0
-7.6751828 -4.2786031 -0.57287943 0
-4.7346659 -2.6292989 -0.64002812 0
-9.9557266 -5.6531057 -0.55930543 0
-5.3448844 -3.0243919 -0.61683917 0
-33.925575 -19.708126 1.0944779 0
-9.8558702 -5.7183924 -0.55447698 0
-5.2850127 -3.0596786 -0.61192048 0
-16.737354 -9.9057169 -0.68405545 0
-6.1502881 -3.6196802 -0.58948696 0
-4.1599193 -2.4450521 -0.66395438 0
-7.3906517 -4.4345951 -0.55822921 0
-4.5801058 -2.7402523 -0.63028038 0
-30.290579 -18.630592 0.18562531 0
-9.5162477 -5.849216 -0.53971207 0
-5.1353583 -3.1454682 -0.59708965 0
-15.827706 -9.911809 -0.64848781 0
-5.9556375 -3.7154863 -0.57467139 0
-4.0552578 -2.5258186 -0.65413201 0
-7.1159959 -4.5154285 -0.54330194 0
-4.4554434 -2.821027 -0.62044239 0
-9.1815662 -5.9350085 -0.52476811 0
-5.0106692 -3.2311573 -0.59227371 0
-15.093013 -9.9327936 -0.61805367 0
-5.7909484 -3.7962086 -0.56480551 0
-3.9555604 -2.591527 -0.64425302 0
-6.9113145 -4.6111832 -0.52846611 0
-4.3407488 -2.8917377 -0.61057186 0
-8.8868895 -6.0357871 -0.50988805 0
-4.8809786 -3.3118703 -0.58242893 0
-14.403322 -9.9587421 -0.59264433 0
-5.6162577 -3.8719552 -0.54991138 0
-3.8558629 -2.6572335 -0.63436961 0
-6.6566191 -4.666954 -0.51344252 0
-4.2360559 -2.9674449 -0.60071874 0
-8.5972118 -6.1315427 -0.49997869 0
-4.7512851 -3.3825836 -0.57253349 0
-13.683612 -9.9297256 -0.5619899 0
-6.4918327 -4.7074866 -0.50343144 0
-4.6964068 -3.4078741 -0.56756067 0
-4.1412983 -3.0180001 -0.59578764 0
-3.7312241 -2.7280755 -0.62446702 0
-3.7312579 -2.7431395 -0.62451541 0
-3.7212858 -2.7432058 -0.62449753 0
-3.7113171 -2.7532721 -0.62452364 0
-3.7013466 -2.7583377 -0.62452781 0
-3.6963766 -2.7634025 -0.62453198 0
-3.6764066 -2.7684941 -0.61953557 0
-4.061542 -3.0735512 -0.59087598 0
-6.2421699 -4.7733178 -0.48841974 0
-7.2775111 -5.6003113 0.032936335 0
-7.2925706 -5.6322494 0.46282977 0
-7.2076149 -5.5951605 1.1080323 0
-7.2076521 -5.6202149 1.1079527 0
-25.557775 -20.153234 0.93863571 0
-7.9478669 -6.2681847 -0.46986428 0
-5.1621203 -4.0689626 -0.52511322 0
-3.9568155 -3.1291957 -0.5809406 0
-12.279258 -9.8917608 -0.51068866 0
-6.0175109 -4.8491187 -0.47844759 0
-4.4120812 -3.5594335 -0.54775095 0
-3.5268557 -2.8495331 -0.60961199 0
-11.959396 -9.8622389 -0.49530569 0
-5.9376688 -4.8944759 -0.47350684 0
-4.3322296 -3.5797961 -0.54272902 0
-3.4820089 -2.8848851 -0.6046716 0
-11.639532 -9.8226986 -0.48488006 0
-5.8378248 -4.9298425 -0.4685199 0
-4.2873869 -3.6251228 -0.54281592 0
-3.432158 -2.910238 -0.59968686 0
-11.319664 -9.7731781 -0.4694148 0
-5.7429805 -4.9652057 -0.46353236 0
-4.2225385 -3.6554787 -0.53783596 0
-3.3873091 -2.9405677 -0.59972286 0
-11.029803 -9.7436275 -0.45903769 0
-5.6481342 -4.9955697 -0.45852175 0
-4.1626911 -3.6858344 -0.53285468 0
-3.3224537 -2.9509487 -0.58967137 0
-10.729938 -9.7040796 -0.44862041 0
-5.55829 -5.0309315 -0.45353207 0
-4.1078463 -3.7261651 -0.53291535 0
-21.433678 -19.78038 -0.49149933 0
-7.0689445 -6.5307264 -0.43482336 0
-4.6481667 -4.2963848 -0.49525705 0
-3.5978448 -3.3315387 -0.56112087 0
-20.818796 -19.655956 -0.4754999 0
-6.9140902 -6.5311317 -0.42464992 0
-4.5683193 -4.326745 -0.49026051 0
-3.2278848 -3.0568619 -0.58985305 0
-5.3236923 -5.1168604 -0.44352749 0
-3.9332359 -3.7870812 -0.52287984 0
-3.1780009 -3.067152 -0.58481848 0
-9.7554283 -9.5756893 -0.40719667 0
-5.2388487 -5.1522002 -0.44353297 0
-3.873389 -3.8174367 -0.51789367 0
-3.1081438 -3.0725136 -0.57974291 0
-9.4755573 -9.5211353 -0.39672735 0
-5.1490006 -5.1775622 -0.43849614 0
-3.8185427 -3.8527679 -0.51792777 0
-3.3884168 -3.4328666 -0.5461508 0
-3.0583251 -3.1079285 -0.57477403 0
-18.014072 -18.633398 -0.4093897 0
-6.2896633 -6.5127106 -0.39387754 0
-4.2789307 -4.4431553 -0.4752433 0
-3.3335991 -3.4682634 -0.54617155 0
-3.0085051 -3.1383245 -0.57478249 0
-28.973858 -30.814257 3.1057587 0
-20.220427 -21.593283 0.87399852 0
-28.848886 -30.967253 0.14538284 0
-8.7809763 -9.447401 -0.37070814 0
-4.8794599 -5.2586484 -0.42340055 0
-3.6339953 -3.928813 -0.50789809 0
-2.9337447 -3.1788747 -0.56979179 0
-8.5411081 -9.4028349 -0.36028889 0
-4.7746072 -5.2690172 -0.41829816 0
-3.5691447 -3.9491704 -0.50286579 0
-2.8838933 -3.1992285 -0.56477571 0
-8.3212461 -9.3732395 -0.3549343 0
-4.6847582 -5.2893786 -0.41323718 0
-3.5142975 -3.9795218 -0.49787399 0
-2.8490486 -3.2395549 -0.56484056 0
-8.0963793 -9.3336658 -0.34454075 0
-4.5899072 -5.3047442 -0.40815458 0
-3.4594505 -4.0098553 -0.49788049 0
-2.7941935 -3.2499106 -0.55978227 0
-7.8715119 -9.2890949 -0.33412823 0
-4.5100613 -5.3350821 -0.40813258 0
-3.3996017 -4.0352097 -0.49286625 0
-2.7493434 -3.2752409 -0.55978429 0
-7.6466398 -9.2345028 -0.32867888 0
-4.4302139 -5.3604407 -0.40308961 0
-3.3447523 -4.0605416 -0.49285117 0
-2.7094941 -3.3005712 -0.55978513 0
-7.4417748 -9.1999235 -0.3183113 0
-4.3353634 -5.3758059 -0.3980051 0
-3.279902 -4.0808988 -0.48781481 0
-2.6596422 -3.3209233 -0.55476546 0
-7.2469101 -9.1653204 -0.31294683 0
-4.2505145 -5.3961463 -0.3979409 0
-3.220053 -4.1062326 -0.48779789 0
-2.6147904 -3.341254 -0.55474508 0
-7.0320377 -9.1107464 -0.30250391 0
-4.1656656 -5.4165082 -0.39287534 0
-3.1702065 -4.1365647 -0.48779944 0
-2.5699394 -3.3616059 -0.54972363 0
-6.8471766 -9.0861387 -0.29718253 0
-4.0908184 -5.441865 -0.38782945 0
-3.1053541 -4.1519208 -0.4827415 0
-2.5150859 -3.376941 -0.54968202 0
-6.6723166 -9.0665293 -0.29188219 0
-4.010973 -5.4722037 -0.38780215 0
-3.0505056 -4.1772547 -0.4827216 0
-2.500248 -3.4322422 -0.5547955 0
-6.4974556 -9.0419197 -0.28656295 0
-3.9311264 -5.4975443 -0.3877537 0
-3.3858685 -4.7526269 -0.43483487 0
-2.6805217 -3.7776387 -0.51603103 0
-11.105221 -15.860695 -0.23770675 0
-4.6417146 -6.6528411 -0.32206896 0
-3.8313041 -5.5129724 -0.38263741 0
-3.3060491 -4.7780304 -0.43477598 0
-2.9058619 -4.2180986 -0.47259399 0
-2.375596 -3.4580834 -0.54464817 0
-15.728299 -23.255997 0.18443552 0
-6.0328078 -8.9579668 -0.26566347 0
-4.4669485 -6.6584201 -0.31681636 0
-4.4519796 -6.663487 -0.3168017 0
-4.4270082 -6.663558 -0.31676778 0
-5.8979144 -8.9282627 -0.26537475 0
-4.3870697 -6.6736956 -0.31673828 0
-3.6366642 -5.5538282 -0.3724409 0
-3.1414089 -4.8238788 -0.4246358 0
-2.7662201 -4.2639213 -0.46748218 0
-2.4860885 -3.8539441 -0.50590277 0
-15.113873 -23.71191 0.18396288 0
-9.6105719 -15.152584 -0.20356372 0
-5.5931511 -8.8539867 -0.24970052 0
-4.1923308 -6.6743631 -0.30643293 0
-3.4969366 -5.5894589 -0.36731014 0
-3.0166719 -4.8395066 -0.41945753 0
-2.6664906 -4.3045216 -0.46741953 0
-2.3963563 -3.8895428 -0.50583684 0
-2.1662455 -3.5345855 -0.53448284 0
-14.329183 -23.652786 0.18524548 0
-8.9807854 -14.903485 -0.18693268 0
-5.2684178 -8.7797613 -0.23898998 0
-3.9926291 -6.695075 -0.30116913 0
-3.3322315 -5.6101613 -0.36209211 0
-2.8769672 -4.8652029 -0.41428968 0
-2.5467849 -4.3302317 -0.45727423 0
-2.2866476 -3.9102504 -0.49569055 0
-2.0815434 -3.575248 -0.53442562 0
-13.569484 -23.598658 0.18648578 0
-8.4310246 -14.744342 -0.17567018 0
-4.9636822 -8.7205315 -0.22835246 0
-3.8079224 -6.7207856 -0.29593292 0
-3.1725202 -5.6308661 -0.35688302 0
-2.7422576 -4.8959012 -0.40914878 0
-2.427072 -4.3559265 -0.45213756 0
-2.1869376 -3.9459212 -0.49560824 0
-1.9818268 -3.5959575 -0.52430248 0
-12.819737 -23.524555 0.18773912 0
-7.836194 -14.465231 -0.16401449 0
-4.6689358 -8.6613045 -0.21773678 0
-3.6031983 -6.7215075 -0.2906144 0
-3.0128014 -5.6465731 -0.35166177 0
-2.6025388 -4.9116015 -0.40395615 0
-2.3073568 -4.3816204 -0.44700244 0
-2.0822201 -3.9666111 -0.49047092 0
-1.8871112 -3.6216269 -0.52419674 0
-12.175054 -23.610411 0.18840468 0
-7.2413397 -14.126139 -0.14716363 0
-4.3791852 -8.5920572 -0.2120896 0
-3.4084744 -6.7222438 -0.28029594 0
-2.8430755 -5.642302 -0.34136721 0
-2.4728248 -4.9373007 -0.39879778 0
-2.2026486 -4.4222932 -0.44691864 0
-1.98251 -4.0023022 -0.48538515 0
-1.797399 -3.6523149 -0.51910639 0
-11.595414 -23.80624 0.18868145 0
-6.706511 -13.852005 -0.13557255 0
-4.1044388 -8.5328236 -0.20148399 0
-3.2137511 -6.7229624 -0.27497771 0
-2.6883554 -5.653007 -0.33612671 0
-2.3481119 -4.9679942 -0.39365664 0
-2.0829296 -4.4379878 -0.44174388 0
-1.8777933 -4.0229936 -0.48024407 0
-1.7076881 -3.6879838 -0.51903212 0
-10.930696 -23.802105 0.18968093 0
-6.2066917 -13.602856 -0.12409258 0
-3.8346879 -8.4635849 -0.19084847 0
-3.0290275 -6.7236762 -0.26966015 0
-2.5336373 -5.6687117 -0.33090362 0
-2.2083876 -4.9686952 -0.3884072 0
-1.9632052 -4.4387002 -0.43151519 0
-1.7630681 -4.0236864 -0.47503182 0
-1.6179706 -3.7086685 -0.51390326 0
-10.316017 -23.897949 0.19032745 0
-10.261051 -23.913031 0.19037297 0
-10.201086 -23.928116 0.19041863 0
-10.13612 -23.943201 0.19046447 0
-10.306371 -24.490353 0.80865598 0
-10.261415 -24.517588 1.4286653 0
-1.5531715 -3.7291377 -0.51383257 0
-9.9112568 -24.003529 0.19064844 0
-5.4120059 -13.199272 -0.10669288 0
-3.4201372 -8.4098377 -0.18000409 0
-2.7245009 -6.7348733 -0.26415607 0
-2.2891188 -5.6998901 -0.32553777 0
-1.9988745 -5.014864 -0.38313928 0
-1.7786994 -4.5048447 -0.4313511 0
-1.6035621 -4.0898237 -0.47489503 0
-1.4584507 -3.7398255 -0.50866628 0
-9.3316021 -24.159361 0.19110002 0
-4.9822059 -13.000093 -0.095438451 0
-3.1954081 -8.3955631 -0.17457092 0
-2.5297654 -6.7056079 -0.25373629 0
-2.1393998 -5.715591 -0.32031283 0
-2.1244256 -5.7106595 -0.32026806 0
-2.4748428 -6.6908174 -0.2535899 0
-4.7323179 -12.86058 -0.089624703 0
-2.5850568 -7.0700364 0.96018696 0
-2.5550735 -7.0362968 1.3103369 0
-1.4839004 -4.1106462 -0.46970573 0
-1.8193074 -5.0658765 -0.38293418 0
-2.3899806 -6.6911793 -0.24843279 0
-4.5224118 -12.745989 -0.083958328 0
-2.5352399 -7.18536 0.96496141 0
-2.4752204 -7.0616097 1.3104161 0
-1.429036 -4.1059999 -0.46458146 0
-1.7444371 -5.046237 -0.37774077 0
-2.3001165 -6.6865253 -0.24825898 0
-8.3621855 -24.415768 0.19191957 0
-2.4053354 -7.0762577 1.1304985 0
-1.5293155 -4.5313625 -0.42092839 0
-2.7958455 -8.3118095 -0.16363749 0
-2.3904142 -7.1446114 0.60533166 0
-1.254068 -3.7713327 -0.49832526 0
-1.8948771 -5.7367687 -0.31490889 0
-4.132607 -12.536777 -0.077705681 0
-2.3254852 -7.1109867 0.95554638 0
-1.2291583 -3.7915151 -0.5033319 0
-1.3293192 -4.1266708 -0.4644337 0
-1.3243506 -4.1367354 -0.46444562 0
-1.3143802 -4.1418023 -0.46444079 0
-1.1892663 -3.7868004 -0.4982343 0
-7.542428 -24.17182 0.19393186 0
-3.8227646 -12.372427 -0.066725194 0
-3.7927926 -12.3725 -0.066672027 0
-7.272398 -23.882111 0.19519159 0
-14.061409 -46.458092 1.2504699 0
-13.986503 -46.618176 1.2501245 0
-7.0424137 -23.707384 0.19606224 0
-3.6128938 -12.27788 -0.066092551 0
-2.3913019 -8.2081194 -0.15261391 0
-1.9257183 -6.6730771 -0.237519 0
-1.6403773 -5.7480111 -0.30944315 0
-1.4451499 -5.1079412 -0.37231138 0
-1.2699542 -4.5479288 -0.41544726 0
-1.1498269 -4.1578951 -0.45914456 0
-1.0497209 -3.8228688 -0.49802545 0
-6.1822906 -22.688335 0.20036297 0
-3.2631087 -12.118651 -0.060042083 0
-2.1765628 -8.1688395 -0.14711174 0
-1.7559925 -6.6687837 -0.2321898 0
-1.5006573 -5.7587085 -0.30419841 0
-1.3254356 -5.1336331 -0.36713991 0
-1.1652399 -4.5736165 -0.41029724 0
-1.0551138 -4.1885629 -0.45902607 0
-0.96000159 -3.8385363 -0.49787113 0
-5.4522905 -21.979235 0.20358354 0
-2.9183075 -11.919436 -0.048875302 0
-1.9718298 -8.1445408 -0.14666116 0
-1.601275 -6.6844678 -0.23192564 0
-1.3609353 -5.7643895 -0.30393699 0
-1.1957095 -5.1293125 -0.36687043 0
-1.0605233 -4.5942874 -0.41012964 0
-0.94537115 -4.1442704 -0.44866493 0
-0.86527675 -3.8392229 -0.49266759 0
-4.7021756 -20.985142 0.20765576 0
-4.6271725 -20.905233 0.20799841 0
-2.5585299 -11.710274 -0.042642415 0
-1.7471201 -8.1103268 -0.14114463 0
-1.4215788 -6.6852403 -0.22658196 0
-1.4066042 -6.6803079 -0.22653493 0
-1.3866298 -6.6753788 -0.22648796 0
-2.3936248 -11.600662 -0.037042439 0
-4.1771564 -20.370838 0.21028802 0
-4.1171665 -20.325922 0.21051353 0
-2.3036883 -11.550882 -0.036734968 0
-1.5873352 -8.0958853 -0.14080447 0
-1.2968034 -6.695787 -0.22636411 0
-1.1014696 -5.7906971 -0.29848894 0
-1.0864953 -5.7857656 -0.29844555 0
-1.0765228 -5.7858319 -0.29841784 0
-1.0615504 -5.7859001 -0.29839012 0
-0.93132585 -5.1558151 -0.36139265 0
-0.8211413 -4.6257677 -0.4097124 0
-0.73599678 -4.1957421 -0.44834796 0
-0.66088629 -3.8507121 -0.48725161 0
-3.3572245 -19.557014 0.21398896 0
-1.9139656 -11.341854 -0.030436337 0
-1.3426969 -8.1018028 -0.13534471 0
-1.0921688 -6.711679 -0.22600415 0
-0.92683417 -5.8065791 -0.29817459 0
-0.81160951 -5.1764903 -0.36120114 0
-0.71642089 -4.6364393 -0.40951017 0
-0.63628227 -4.2214131 -0.4482083 0
-0.57616961 -3.8713787 -0.48710969 0
-2.8222997 -19.042837 0.2163727 0
-1.6241797 -11.182601 -0.024456471 0
-1.1529777 -8.1124983 -0.13500965 0
-0.93244255 -6.7073641 -0.22567698 0
-0.79211164 -5.8122578 -0.29791251 0
-0.69188732 -5.1821661 -0.36096248 0
-0.60670048 -4.6471281 -0.4043074 0
-0.53655368 -4.2120843 -0.44796053 0
-0.48644695 -3.8770473 -0.48692086 0
-2.3073628 -18.498652 0.21880674 0
-1.3443916 -11.018344 -0.018474489 0
-0.95823848 -8.0732107 -0.12952328 0
-0.77772081 -6.7130637 -0.22038022 0
-0.65739554 -5.8329368 -0.29769507 0
-0.57216644 -5.1928406 -0.36073944 0
-0.49697536 -4.6478004 -0.40407458 0
-0.44183704 -4.2327533 -0.44780388 0
-0.39672816 -3.8927159 -0.48676196 0
-1.8374712 -18.069447 0.22085464 0
-1.0746275 -10.914083 -0.012684703 0
-0.76850331 -8.0439062 -0.12906995 0
-0.62300712 -6.7387486 -0.22014281 0
-0.5226776 -5.8486166 -0.29746136 0
-0.45244423 -5.1985316 -0.35550037 0
-0.39225098 -4.6484723 -0.40384135 0
-0.34210187 -4.2084384 -0.44251284 0
-0.30199677 -3.8784001 -0.48151365 0
-1.3875914 -17.670235 0.22278029 0
-0.81986916 -10.8248 -0.01194784 0
-0.58377397 -8.0295992 -0.12866366 0
-0.46828339 -6.7394333 -0.21983042 0
-0.3879514 -5.8443108 -0.29216811 0
-0.33271989 -5.1992073 -0.35524657 0
-0.28252846 -4.6541457 -0.40362319 0
-0.2473933 -4.2490926 -0.44741383 0
-0.21228015 -3.8990688 -0.48136851 0
-0.96274078 -17.34601 0.2244541 0
-0.56510484 -10.720531 -0.006174475 0
-0.39402458 -7.9653096 -0.1231133 0
-0.31355369 -6.7251182 -0.21947458 0
-0.25323352 -5.8599758 -0.29693344 0
-0.2129977 -5.2048836 -0.35500738 0
-0.17780405 -4.6548324 -0.3983902 0
-0.14766873 -4.2497787 -0.44219628 0
-0.12255147 -3.8897378 -0.4811354 0
-0.55791247 -17.076778 0.22594565 0
-0.3153418 -10.621245 -0.0054250956 0
-0.20929061 -7.9410014 -0.122684 0
-0.15881591 -6.6908178 -0.21406287 0
-0.11850937 -5.8606701 -0.29165509 0
-0.10853691 -5.8607364 -0.29162726 0
-0.11390658 -6.7110076 -0.21902734 0
-0.1194212 -7.9213619 -0.11744797 0
-0.14551227 -10.561759 6.7293644e-05 0
-0.35734168 -27.449186 0.83707774 0
-0.29229489 -27.287878 2.1076508 0
-0.017887678 -3.905539 -0.48093376 0
-0.0079151569 -3.9056063 -0.48091343 0
-0.053108051 -16.672773 0.2279989 0
0.0043512178 -10.502188 0.000503093 0
0.02537721 -7.8869166 -0.11707121 0
0.040831473 -6.6917071 -0.21366838 0
0.05581329 -6.6717753 -0.21358281 0
0.070770934 -6.7118292 -0.21866611 0
0.090748765 -6.7019138 -0.2136088 0
0.10571647 -6.7169676 -0.21862158 0
0.11570836 -6.6720481 -0.2134662 0
0.13566202 -6.7221041 -0.21857694 0
0.15064999 -6.6871858 -0.21344998 0
0.16562377 -6.687254 -0.21342078 0
0.18061158 -6.6523223 -0.213294 0
0.1955653 -6.7023907 -0.21340412 0
0.21054253 -6.6924601 -0.21334642 0
0.22552231 -6.6775284 -0.21327555 0
0.24049407 -6.6825962 -0.21326026 0
0.25547186 -6.6726642 -0.21320337 0
0.27044162 -6.6827326 -0.21320188 0
0.28541738 -6.6778007 -0.21315888 0
0.30038714 -6.6878686 -0.2131573 0
0.3153609 -6.6879368 -0.21312809 0
0.33533868 -6.6780071 -0.21307144 0
0.35031247 -6.6780748 -0.21304226 0
0.36527622 -6.7031293 -0.21808168 0
0.37526795 -6.6582093 -0.21292907 0
0.39024717 -6.6432791 -0.21285832 0
0.41020697 -6.6783485 -0.21292499 0
0.42518273 -6.6734166 -0.21288219 0
0.44015849 -6.6684847 -0.21283939 0
0.45513228 -6.6685529 -0.21281028 0
0.47010404 -6.6736207 -0.21279475 0
0.48508787 -6.6486888 -0.21269786 0
0.50007159 -6.6237569 -0.21260101 0
0.51502943 -6.663825 -0.2126804 0
0.53000718 -6.653893 -0.21262422 0
0.5449869 -6.6389608 -0.21255463 0
0.5599547 -6.6540289 -0.21256611 0
0.57493192 -6.6440983 -0.21250948 0
0.59489769 -6.6641684 -0.21253431 0
0.60489327 -6.6092343 -0.21235734 0
0.6198532 -6.6443024 -0.2124224 0
0.63483089 -6.6343703 -0.21236655 0
0.64980268 -6.6394382 -0.21235096 0
0.66477841 -6.6345062 -0.21230859 0
0.67975223 -6.6345744 -0.21227959 0
0.69472796 -6.629642 -0.21223727 0
0.71470165 -6.6297121 -0.21220833 0
0.72467542 -6.6297779 -0.21217933 0
0.7446512 -6.6248484 -0.2121371 0
0.75962496 -6.6249161 -0.21210817 0
0.77459884 -6.6249838 -0.21207938 0
0.78956467 -6.645052 -0.21210331 0
0.80455029 -6.6151195 -0.21199507 0
0.81453592 -6.5851994 -0.20688698 0
0.83449978 -6.6102552 -0.21192405 0
0.84946758 -6.6253238 -0.21193463 0
1.0089957 -7.7607203 -0.10988948 0
1.0239754 -7.7457881 -0.10981715 0
1.3380539 -10.026306 0.014238298 0
1.3630283 -10.026377 0.014279217 0
1.3830045 -10.021445 0.014333248 0
1.4079822 -10.011518 0.014401078 0
1.4279624 -9.9965878 0.014481068 0
1.4529289 -10.016658 0.014469832 0
1.4729171 -9.9817266 0.014601707 0
1.4928914 -9.9817963 0.014642507 0
1.5178696 -9.9718676 0.014709145 0
1.5378478 -9.961936 0.014775783 0
1.5578279 -9.9470053 0.014855295 0
1.5828043 -9.9420757 0.014908791 0
1.6027865 -9.9221449 0.01500079 0
1.627757 -9.9322147 0.015015572 0
2.3759918 -14.388159 0.23859665 0
2.4059763 -14.363232 0.2387183 0
2.4359591 -14.343304 0.23882578 0
3.7230556 -21.73016 0.73496377 0
3.77303 -21.735239 0.73503315 0
3.8280005 -21.750319 0.73507696 0
3.8829689 -21.770399 0.73510814 0
3.9329493 -21.760475 0.7352159 0
10.523906 -57.84214 4.2435298 0
0.73488718 -3.8561287 -0.4841629 0
0.80473042 -4.191319 -0.44499484 0
0.88955241 -4.5815411 -0.39596406 0
0.99932593 -5.0967712 -0.34724715 0
1.1390413 -5.7620373 -0.28890613 0
1.3087008 -6.5723653 -0.21092674 0
1.5332539 -7.6577754 -0.10863549 0
1.9773979 -9.7983303 0.016005546 0
2.8357553 -13.969303 0.24055454 0
4.477654 -21.91128 0.74066073 0
11.94362 -58.128223 4.2799067 0
0.82462412 -3.8467934 -0.48394629 0
0.90446597 -4.1869864 -0.44477901 0
0.91444319 -4.177053 -0.44473371 0
0.92441845 -4.1721196 -0.44470093 0
0.93439186 -4.1721864 -0.44468066 0
0.94436324 -4.1772532 -0.44467285 0
0.95434046 -4.1673203 -0.44462773 0
0.95931381 -4.1673851 -0.44460741 0
0.97428519 -4.1724529 -0.4445996 0
1.0691141 -4.5476751 -0.39550844 0
1.1938949 -5.0479083 -0.34672371 0
1.3586103 -5.7181802 -0.28835538 0
1.3735877 -5.7082486 -0.28830501 0
1.3885593 -5.7133045 -0.29329166 0
1.403533 -5.7133722 -0.29326603 0
1.4135066 -5.713438 -0.2932404 0
1.4234842 -5.703516 -0.28819022 0
1.4384558 -5.7085719 -0.2931768 0
1.4534312 -5.70364 -0.29313895 0
1.4634084 -5.6937194 -0.28808835 0
1.4783839 -5.6887875 -0.28805056 0
1.4933555 -5.6938429 -0.29303715 0
1.5033311 -5.6889095 -0.29299936 0
1.5183085 -5.6789894 -0.28794953 0
1.528284 -5.6740551 -0.28791186 0
1.5432575 -5.6741109 -0.29288629 0
1.558233 -5.6691914 -0.28784874 0
1.5682067 -5.6692452 -0.29282317 0
1.5831803 -5.6693134 -0.29279765 0
1.5931578 -5.6593914 -0.28774813 0
1.6081314 -5.6594591 -0.28772262 0
1.6231062 -5.6545162 -0.29268464 0
1.6330818 -5.6495948 -0.28764722 0
1.6480553 -5.6496506 -0.29262176 0
1.6630309 -5.6447182 -0.29258439 0
1.6730083 -5.6347961 -0.28753516 0
1.687978 -5.6448522 -0.29253355 0
1.7029536 -5.6399198 -0.29249641 0
1.7129312 -5.6299858 -0.29244724 0
1.7279028 -5.6350536 -0.29243371 0
1.7378783 -5.6301198 -0.29239646 0
1.7528538 -5.6251874 -0.29235932 0
1.7678293 -5.6202555 -0.29232219 0
2.037487 -6.4506073 -0.21425304 0
2.3670754 -7.4660506 -0.10661405 0
3.0013108 -9.411665 0.023846269 0
6.2424331 -19.564594 0.71006441 0
9.1340418 -28.534466 4.4241347 0
1.4631364 -4.4601974 -0.39947668 0
2.1123595 -6.4409451 -0.21408841 0
7.441133 -22.816708 1.3426932 0
1.2583519 -3.7500486 -0.48277536 0
1.872625 -5.6007938 -0.29207245 0
3.1261733 -9.3670769 0.024182916 0
9.5039072 -28.551563 3.0196204 0
1.2882717 -3.750237 -0.48771915 0
1.6977915 -4.9507766 -0.35048726 0
2.5418336 -7.4167309 -0.10618016 0
6.5823293 -19.265234 0.70642924 0
9.9087 -28.905352 4.5092335 0
1.7327133 -4.9459782 -0.35040632 0
4.3798018 -12.58844 0.24698238 0
10.083623 -28.990541 4.5242519 0
1.5828508 -4.4409213 -0.40419659 0
2.6217139 -7.3870692 -0.10595235 0
9.8739529 -27.952009 2.9818475 0
1.353067 -3.7257659 -0.48751143 0
2.0173473 -5.5665331 -0.29171416 0
3.350929 -9.2628326 0.02484715 0
10.083893 -27.932247 2.9872043 0
1.3779924 -3.7109644 -0.48742124 0
2.0572717 -5.5567346 -0.29161599 0
6.9622049 -18.955946 0.70286775 0
10.278862 -27.902273 5.1025896 0
2.3869104 -6.3771515 -0.21843261 0
10.628538 -28.611197 2.3460772 0
1.4128869 -3.7062304 -0.48733506 0
2.1121674 -5.5520048 -0.29150382 0
3.5007703 -9.2033157 0.025250405 0
10.648677 -28.109474 3.7275343 0
1.5626866 -4.0265651 -0.44800332 0
2.461786 -6.3574901 -0.21824709 0
7.2271142 -18.746439 0.69884759 0
10.863626 -28.107929 5.1678548 0
2.1770449 -5.5273399 -0.29132232 0
4.829474 -12.319627 0.24843608 0
11.193392 -28.570066 3.7970226 0
1.6175551 -4.0218883 -0.45289376 0
2.2169712 -5.5125299 -0.29621384 0
3.6655867 -9.1438637 0.025687605 0
7.4270587 -18.506861 0.69981182 0
11.168609 -27.745043 3.7092881 0
1.6524553 -4.0021648 -0.44776997 0
1.8172867 -4.3823886 -0.40359685 0
2.0270753 -4.8776393 -0.35467663 0
2.2918215 -5.4879317 -0.2960085 0
2.641489 -6.3082995 -0.21780139 0
3.0611014 -7.278759 -0.10992065 0
3.8354039 -9.0794134 0.026132882 0
3.8553798 -9.074482 0.02618134 0
3.8753579 -9.0645494 0.026240766 0
3.8953359 -9.0546188 0.026300102 0
3.9153137 -9.0446863 0.026359349 0
3.9352953 -9.0247545 0.026440412 0
3.9602687 -9.0248251 0.02647838 0
3.9752505 -9.0048923 0.026559293 0
3.9952266 -8.9999599 0.026607364 0
4.0202026 -8.9950304 0.026655316 0
4.0401807 -8.9850979 0.026714146 0
4.0601583 -8.9751673 0.026772916 0
4.0801363 -8.9652348 0.026831597 0
4.0951138 -8.9553003 0.026890278 0
4.1150937 -8.9403687 0.026959598 0
4.1400681 -8.9404383 0.026996493 0
4.1600456 -8.9305067 0.027054906 0
4.1850219 -8.9255762 0.027102262 0
4.204999 -8.9156456 0.027161539 0
4.224977 -8.905714 0.027219743 0
4.2449532 -8.9007816 0.027267039 0
4.2699275 -8.9008512 0.027303785 0
4.2899051 -8.8909197 0.02736184 0
4.3098831 -8.8809881 0.027419806 0
4.334857 -8.8810577 0.027456462 0
4.3598328 -8.8761272 0.027503699 0
4.3798108 -8.8661957 0.027561545 0
4.4047828 -8.8712654 0.027587593 0
4.4347553 -8.8763371 0.02761361 0
4.4497352 -8.8614025 0.027681917 0
4.4747124 -8.8514748 0.02774024 0
4.4996867 -8.8515444 0.027776778 0
8.5567303 -16.829483 0.68108678 0
8.9664574 -17.55261 2.0796409 0
1.8665711 -3.57459 -0.49610475 0
2.4761152 -4.7451558 -0.36353251 0
3.2105734 -6.1507874 -0.22144243 0
3.7401843 -7.1412697 -0.11347795 0
3.7601581 -7.1413279 -0.11844739 0
3.7751374 -7.1264052 -0.11338574 0
3.7901134 -7.1214614 -0.11834499 0
3.8100872 -7.1215296 -0.1183145 0
3.8350608 -7.1216002 -0.11828411 0
4.7144456 -8.7322903 0.028426647 0
4.7344232 -8.7223587 0.028483331 0
6.2633815 -11.503445 0.25280562 0
6.2883654 -11.478514 0.25290263 0
6.3083453 -11.46358 0.25297913 0
8.8266706 -15.985418 0.66878206 0
12.164488 -21.976788 3.1666222 0
1.9911913 -3.5155797 -0.49571112 0
2.6457403 -4.6811533 -0.36306736 0
4.8792682 -8.6528339 0.028877467 0
12.269485 -21.811949 3.157198 0
2.4058633 -4.2010789 -0.41704991 0
4.9242263 -8.63797 0.028975695 0
12.389458 -21.792093 3.1623929 0
2.2109516 -3.8160422 -0.4612318 0
3.4801283 -6.0170455 -0.22566018 0
6.5431814 -11.329193 0.25364977 0
11.410145 -19.757442 3.4467242 0
2.2358792 -3.8012385 -0.46114698 0
3.550045 -6.042253 -0.22563466 0
9.0116501 -15.391083 0.66062474 0
12.149755 -20.709311 4.1800294 0
2.7704978 -4.6468062 -0.36778715 0
6.6630998 -11.244526 0.25403333 0
11.695065 -19.722799 3.4621451 0
2.4956303 -4.1367316 -0.4167265 0
5.1390171 -8.5636406 0.029464543 0
11.830019 -19.742958 3.4722457 0
2.5155809 -4.1318622 -0.41667834 0
4.2395368 -6.9781413 -0.11731648 0
12.314765 -20.332321 3.0162158 0
2.3206618 -3.7618275 -0.46090564 0
6.8329878 -11.179935 0.25441721 0
12.114923 -19.819391 4.0573788 0
3.6998162 -5.987905 -0.23027185 0
12.729571 -20.696604 2.5057139 0
2.3355963 -3.72703 -0.4557825 0
4.3294253 -6.9484653 -0.12211463 0
12.29986 -19.802441 2.9626217 0
12.454825 -19.981964 5.2422729 0
5.3288336 -8.4792328 0.024934798 0
12.889565 -20.54908 3.6462998 0
2.6153603 -4.1024547 -0.41644725 0
7.012867 -11.075401 0.25491819 0
12.759677 -20.150114 4.157227 0
2.9401429 -4.5727806 -0.37232843 0
5.4137511 -8.4444981 0.025136471 0
9.2916021 -14.472152 0.64842641 0
12.93463 -20.125332 4.1724901 0
2.4303694 -3.7126021 -0.46559343 0
2.9850478 -4.5530438 -0.37220702 0
4.5092039 -6.8841305 -0.12170485 0
7.1927452 -10.97087 0.25541514 0
13.199546 -20.108429 3.0478084 0
2.2703798 -3.3877285 -0.49989411 0
3.0299532 -4.5333052 -0.37208655 0
4.5891132 -6.8643985 -0.12155399 0
7.297678 -10.906136 0.25570577 0
34.378544 -51.403862 4.5030441 0
2.3052795 -3.3779795 -0.50480843 0
2.7600236 -4.0383615 -0.4210566 0
3.4746382 -5.0738902 -0.30801776 0
5.6984787 -8.3403664 0.025769264 0
5.7184587 -8.3304319 0.025821209 0
7.4525728 -10.816537 0.25612551 0
9.5265274 -13.778047 0.64054286 0
33.944321 -49.048641 4.3537312 0
2.3501146 -3.3284411 -0.49959698 0
2.5849781 -3.6486406 -0.47018638 0
3.169668 -4.4740825 -0.37672809 0
4.8038507 -6.7751827 -0.12604743 0
5.878314 -8.2659016 0.026173949 0
7.6324501 -10.712 0.25660971 0
34.219635 -48.033848 4.3116331 0
2.4099622 -3.3188252 -0.50447953 0
3.2395458 -4.4594131 -0.37659904 0
3.6543307 -5.0147371 -0.31261697 0
4.9137177 -6.7355795 -0.12580639 0
9.7664213 -13.398728 0.63680935 0
35.589363 -48.797276 5.8210344 0
2.6747365 -3.599292 -0.4699181 0
2.9445899 -3.9545288 -0.42556003 0
3.714216 -4.980063 -0.3124418 0
4.3039293 -5.7504616 -0.23884508 0
5.0335808 -6.7059798 -0.12558499 0
7.922256 -10.54773 0.25736126 0
35.759701 -47.634804 4.3541622 0
2.5096912 -3.2745345 -0.50921595 0
3.3392992 -4.3601227 -0.37619349 0
5.1034932 -6.6762333 -0.13041997 0
8.0271854 -10.487995 0.25763136 0
9.9613295 -12.969392 0.6331383 0
36.439751 -47.390213 4.3704195 0
2.5445707 -3.244858 -0.50907958 0
3.044332 -3.8802414 -0.42521986 0
3.4091573 -4.3255153 -0.37601063 0
3.8739357 -4.91084 -0.31705233 0
4.4986534 -5.6812444 -0.24342546 0
4.5036349 -5.6613154 -0.2383652 0
5.2732954 -6.6068287 -0.13004667 0
5.2882724 -6.6018939 -0.13001043 0
5.3132482 -6.6019616 -0.12998331 0
5.3332267 -6.5920277 -0.12993827 0
5.348207 -6.5770926 -0.12988433 0
5.3631845 -6.5721569 -0.12984839 0
5.3831625 -6.5622244 -0.12980285 0
5.4031396 -6.557291 -0.12976691 0
5.4231181 -6.5473566 -0.12972233 0
5.4430938 -6.5474138 -0.13469532 0
5.4580746 -6.5324788 -0.13464183 0
5.4730549 -6.5175433 -0.13458842 0
5.4880333 -6.5076075 -0.1345439 0
5.5130086 -6.5076752 -0.13451707 0
8.6317835 -10.179453 0.25905469 0
10.661005 -12.54285 1.7899485 0
2.7190568 -3.1462116 -0.51356459 0
3.6536772 -4.2318044 -0.38545004 0
6.7674708 -7.8585997 0.023228973 0
10.566028 -12.25727 1.3855871 0
2.743983 -3.1313982 -0.51849067 0
3.3087478 -3.776782 -0.43959865 0
4.1883993 -4.7723274 -0.32631132 0
4.8581319 -5.5177431 -0.24758342 0
4.8731108 -5.5078082 -0.24754259 0
5.6877933 -6.4133291 -0.13408411 0
6.922328 -7.7790604 0.023586184 0
38.016014 -42.841393 4.2082405 0
2.7988122 -3.0968504 -0.51831985 0
3.3885784 -3.7422388 -0.43941334 0
4.2832365 -4.7277832 -0.32608631 0
7.0122452 -7.7393146 0.018778384 0
38.37611 -42.441628 4.204505 0
2.8387127 -3.0821109 -0.51823175 0
3.4284828 -3.7174902 -0.44429931 0
5.0428963 -5.4733968 -0.25227073 0
9.1964321 -9.9856596 0.26008606 0
38.381329 -41.698925 5.4963474 0
3.1185298 -3.3275166 -0.47858474 0
3.8432572 -4.1029606 -0.38988063 0
5.9125309 -6.3091068 -0.1385884 0
7.1870813 -7.6498384 0.019177377 0
10.655896 -11.322007 0.618029 0
39.336258 -41.779469 5.5619216 0
3.1833999 -3.3278291 -0.48850259 0
3.9281306 -4.0982847 -0.39477757 0
4.4679327 -4.6436243 -0.33067092 0
5.187676 -5.3790355 -0.25687799 0
5.1976547 -5.3641005 -0.25682941 0
6.0673532 -6.2446322 -0.13827062 0
7.3719149 -7.5653644 0.019563258 0
11.005732 -11.272565 0.62345266 0
12.255346 -12.52714 3.1364245 0
2.9782963 -2.9931948 -0.52781701 0
3.6030748 -3.6185832 -0.4488335 0
4.5727482 -4.5841351 -0.33540609 0
7.4868112 -7.5106916 0.019804806 0
12.435265 -12.476043 2.3166928 0
3.0081997 -2.9684517 -0.52771497 0
4.102838 -4.049057 -0.40446857 0
5.3574276 -5.2897511 -0.25647649 0
9.8760223 -9.7470608 0.26127896 0
11.995385 -11.816603 2.6279526 0
3.3380098 -3.2438595 -0.49310133 0
4.6675839 -4.5395823 -0.34018919 0
7.6616621 -7.4461455 0.015120924 0
13.015058 -12.651658 2.3767343 0
3.0680256 -2.9388971 -0.53255951 0
4.1576796 -3.9795029 -0.40422389 0
6.3470106 -6.0756602 -0.14258173 0
11.585451 -11.088579 0.63438559 0
12.440217 -11.877795 3.0831645 0
3.7427404 -3.529479 -0.45344606 0
6.4069438 -6.0508561 -0.14246565 0
12.760104 -12.066757 2.3079503 0
3.4077971 -3.1744361 -0.49284455 0
5.5471578 -5.1855226 -0.26103511 0
12.835073 -12.021884 2.3131115 0
3.4427435 -3.1795623 -0.49782071 0
6.4768581 -6.0061078 -0.14729261 0
12.180249 -11.312223 2.5943272 0
3.8025966 -3.489867 -0.45328012 0
10.380729 -9.5680618 0.26212499 0
3.1627557 -2.879601 -0.53729808 0
4.8672571 -4.4404845 -0.34474626 0
11.565383 -10.569103 0.62562239 0
12.745097 -11.628965 3.5089564 0
12.700117 -11.556607 5.1841164 0
12.365159 -11.221918 2.209681 0
12.735089 -11.524673 3.9092076 0
6.616704 -5.9415636 -0.1470153 0
12.41514 -11.168262 3.0048497 0
4.3473029 -3.8655298 -0.40874794 0
12.215165 -10.914593 0.64028406 0
12.510131 -11.159604 3.8249056 0
6.686636 -5.921762 -0.14690953 0
3.2175629 -2.8251123 -0.53709328 0
4.3922286 -3.8557186 -0.41367802 0
12.315115 -10.854787 0.64050114 0
12.745047 -11.214873 3.8699467 0
6.7365708 -5.8869481 -0.15178043 0
12.155189 -10.643875 3.305871 0
13.169934 -11.497235 5.2745976 0
12.250129 -10.673422 2.9309063 0
4.4271369 -3.8159742 -0.41354373 0
13.254844 -11.475952 1.0797116 0
3.9572389 -3.3858192 -0.46286514 0
12.819943 -11.050229 0.65540659 0
3.9672143 -3.3808835 -0.46284088 0
12.824935 -11.000284 0.65552455 0
12.460073 -10.669867 3.7510331 0
10.79544 -9.2091398 0.26329893 0
12.165135 -10.359097 3.2715471 0
5.9116611 -4.9919367 -0.27024415 0
13.00989 -11.029129 3.065608 0
4.4969959 -3.7713604 -0.41336766 0
10.8304 -9.1093178 0.26355705 0
3.6321907 -3.0210238 -0.50721216 0
5.9515944 -4.9621201 -0.2751334 0
13.374777 -11.179463 3.1255064 0
13.344811 -11.116324 4.3756027 0
10.865356 -9.0144968 0.26380646 0
12.559986 -10.404583 3.3367155 0
5.1767259 -4.251955 -0.35400012 0
12.919856 -10.643115 2.2164359 0
3.6770699 -2.9863462 -0.50708258 0
6.041481 -4.9174476 -0.27495733 0
12.924838 -10.548205 2.211658 0
3.6920223 -2.9714735 -0.50702977 0
6.0864315 -4.9125795 -0.2749069 0
13.594667 -10.999249 2.7210677 0
4.1068797 -3.2817762 -0.4674606 0
7.1011567 -5.6881704 -0.15601429 0
12.844829 -10.299482 2.9671865 0
4.1318307 -3.2719059 -0.4674134 0
7.1461129 -5.6683016 -0.15593675 0
13.664615 -10.848842 2.3014543 0
3.7518754 -2.9368529 -0.51188707 0
5.3164945 -4.1675925 -0.35868177 0
8.8856668 -6.9592195 0.0072411597 0
13.319676 -10.434958 3.0421836 0
4.1867108 -3.237221 -0.47228137 0
7.2410035 -5.6136155 -0.16073665 0
13.624592 -10.570217 3.0970657 0
3.8017533 -2.9071679 -0.5167681 0
5.3863797 -4.1229072 -0.36352101 0
9.0205612 -6.8995399 0.0024694502 0
13.94449 -10.669922 2.7320416 0
3.8266799 -2.887361 -0.51669383 0
6.3311143 -4.783473 -0.28441784 0
13.434566 -10.156904 0.65285903 0
3.5117044 -2.6173446 -0.55127478 0
4.2615194 -3.1777263 -0.47706643 0
6.3910456 -4.7586622 -0.28931889 0
9.1804342 -6.8299322 0.00273785 0
13.889447 -10.319551 2.2827837 0
13.729506 -10.166201 3.4830034 0
4.3014245 -3.1429842 -0.47695294 0
5.5211482 -4.0335436 -0.36820325 0
7.4907217 -5.4594541 -0.16020721 0
11.154955 -8.111146 0.26606339 0
14.529279 -10.551268 3.2126529 0
13.889426 -10.041479 3.4933722 0
4.3513041 -3.1083038 -0.47682509 0
4.9061704 -3.493583 -0.4323509 0
5.606009 -3.9789298 -0.36801454 0
6.5807972 -4.6493659 -0.29393414 0
7.6155729 -5.364893 -0.1649121 0
9.5101824 -6.6807079 -0.0017208159 0
7.6555281 -5.3450232 -0.16483796 0
7.6755071 -5.3300872 -0.16479439 0
7.6954861 -5.3151517 -0.1647509 0
7.7204623 -5.3102174 -0.16472122 0
6.690639 -4.5748148 -0.2936863 0
6.7106166 -4.5648732 -0.29865226 0
5.7407794 -3.879564 -0.37269315 0
5.7507563 -3.869627 -0.37266132 0
5.0558648 -3.3794091 -0.43697491 0
4.5109439 -2.9942529 -0.48643467 0
4.525919 -2.9893117 -0.49141267 0
4.0859766 -2.6792006 -0.53097725 0
3.7660117 -2.4541149 -0.57565916 0
11.489593 -7.5074658 0.26757714 0
9.9748459 -6.4767461 -0.0060113668 0
7.9751806 -5.1460371 -0.17420509 0
6.9103475 -4.4306364 -0.30322847 0
5.9105024 -3.7603207 -0.38231644 0
5.9154797 -3.7503824 -0.38228539 0
5.2005811 -3.2751648 -0.44663832 0
4.6456542 -2.9050114 -0.49613312 0
4.200707 -2.6098945 -0.54072917 0
3.8457427 -2.3748169 -0.57540584 0
14.198988 -8.7893057 0.65622938 0
11.864357 -7.3032336 0.26820254 0
10.339591 -6.3225241 -0.010491848 0
8.2199192 -4.9917998 -0.17873779 0
7.0850835 -4.2713919 -0.30778304 0
6.0752244 -3.6410816 -0.38694921 0
6.0952001 -3.636147 -0.38692549 0
6.1051779 -3.6212032 -0.39188907 0
6.1151562 -3.606266 -0.39185271 0
8.359786 -4.9221816 -0.1835188 0
12.129189 -7.1292119 0.59368753 0
12.08919 -7.0754833 1.5737853 0
4.3053694 -2.4907849 -0.54038095 0
4.3553386 -2.505847 -0.55038643 0
4.3753138 -2.5009074 -0.55536664 0
4.3602929 -2.4809711 -0.55032778 0
4.3652692 -2.4710336 -0.55030167 0
3.9803035 -2.2359519 -0.58499277 0
12.159062 -6.8492537 0.2692655 0
10.909228 -6.1036296 -0.019777358 0
8.6095428 -4.7878842 -0.18811557 0
7.3547039 -4.0574603 -0.31718853 0
6.3348274 -3.4721546 -0.40144536 0
5.559916 -3.0269368 -0.46587917 0
4.9449801 -2.6717792 -0.51542675 0
4.4450269 -2.3866639 -0.55506253 0
4.0650558 -2.16658 -0.59477985 0
12.348886 -6.5848565 0.26986375 0
11.189024 -5.9342642 -0.024319232 0
11.224003 -5.9193296 -0.024276674 0
