# .PCD v0.7 - Point Cloud Data file format
VERSION 0.7
FIELDS x y z intensity
SIZE 4 4 4 4
TYPE F F F F
COUNT 1 1 1 1
WIDTH 1404
HEIGHT 1
VIEWPOINT 0 0 0 1 0 0 0
POINTS 1404
DATA ascii
5.4595628 -3.6659136 0.043304246 0
5.7836833 -3.5439637 0.044610046 0
5.9452147 -3.4851496 0.040120393 0
6.040801 -3.4394686 0.043804057 0
6.8358731 -3.2661996 0.031160602 0
14.469753 17.370085 0.034899328 0
15.046727 17.303213 0.030933958 0
14.502143 18.238348 0.024528895 0
5.8539886 -18.356665 0.10208447 0
7.2443142 -17.312553 0.17520036 0
6.5699635 -16.768665 0.16780631 0
2.2688065 -5.1481209 0.19618905 0
2.36588 -4.9279032 0.10825887 0
2.5415454 -4.8530602 0.11576204 0
2.6416087 -4.8087716 0.12009743 0
2.841496 -4.7404447 0.12274323 0
2.9630017 -4.6557074 0.12925354 0
3.0933251 -4.6146479 0.1340026 0
3.1654637 -4.5591221 0.13804303 0
3.2122641 -4.5394945 0.13994223 0
3.3768399 -4.4871254 0.14086975 0
3.4407005 -4.4430389 0.14417641 0
3.5085304 -4.4412818 0.14574385 0
3.6564779 -4.3740616 0.14934269 0
3.8188977 -4.3108487 0.15303658 0
3.8858566 -4.2934036 0.15522528 0
4.1083493 -4.200346 0.1588669 0
4.3150101 -4.1082954 0.16706656 0
4.4482431 -4.0574336 0.16694897 0
4.8552871 -3.8969653 0.17691828 0
4.9372206 -3.8629861 0.17997114 0
5.1318746 -3.7775772 0.18237498 0
5.2055054 -3.7361393 0.18552862 0
5.526958 -3.6237338 0.18646918 0
5.7299166 -3.5459328 0.19360234 0
6.1444216 -3.3973475 0.19763774 0
25.530432 -3.3037364 0.13183005 0
7.3447266 -0.7405991 0.11733854 0
7.4302125 -0.76914555 0.11300737 0
7.6787825 -0.3057766 0.11846897 0
7.6570811 -0.25335488 0.11980327 0
7.0054049 0.31231055 0.1507559 0
8.3149633 0.85702747 0.12897687 0
-14.818823 1.3336221 0.14403753 0
-50.942215 29.434822 0.18576296 0
8.1413584 -16.163582 0.23461427 0
2.5680168 -5.9650512 0.2869139 0
2.4713855 -4.9362741 0.2105393 0
2.5710514 -4.9124393 0.21395186 0
2.667614 -4.8619943 0.21847939 0
2.8485813 -4.7679577 0.22682236 0
2.9705584 -4.7194214 0.23176447 0
3.1406364 -4.627562 0.23965053 0
3.2832422 -4.5795627 0.24492157 0
3.3348424 -4.5423756 0.2476851 0
3.6691191 -4.4188037 0.26034647 0
3.7185638 -4.3706827 0.26346451 0
3.9304039 -4.3161569 0.27035195 0
4.0880046 -4.2516747 0.27642557 0
4.3371272 -4.2693028 0.28098106 0
4.4790435 -4.0921803 0.29128858 0
6.260622 -3.3521857 0.20168686 0
6.402349 -3.308691 0.20115794 0
6.6247721 -3.2359765 0.20332694 0
7.2464137 -2.2834866 0.24108967 0
-16.574001 6.0166039 0.21184245 0
-18.522629 10.821705 0.2868042 0
2.3356218 -4.9754248 0.30566826 0
2.4798107 -4.9020762 0.31237754 0
2.5261283 -4.884038 0.3142865 0
2.6392357 -4.8487144 0.32352525 0
2.8137906 -4.7718091 0.33098945 0
4.1766791 -4.2456422 0.39869687 0
5.066946 -3.8583319 0.31294605 0
5.355751 -3.7321804 0.32386404 0
5.477581 -3.704061 0.32743868 0
-12.610454 -3.6003108 0.36971873 0
5.7844257 -3.5879889 0.33818164 0
5.986948 -3.530633 0.34446967 0
7.6645837 -0.53661543 0.30056405 0
7.6752086 -0.40539134 0.30519706 0
7.7097707 -0.47685564 0.30345398 0
7.5715275 -0.14457819 0.31191012 0
7.8664746 0.0013115349 0.31747037 0
6.9804106 0.26575291 0.32388103 0
6.9627533 0.33256048 0.32570496 0
-0.1040853 15.688144 0.37035117 0
-5.3516059 40.783112 0.34088251 0
2.7499082 -6.3376312 0.41979289 0
2.4023457 -5.4487495 0.40621528 0
2.3003764 -5.1772985 0.40592897 0
2.353205 -5.0214391 0.40916389 0
2.420476 -4.9834266 0.41248664 0
2.5472109 -4.9361649 0.41761115 0
2.6485653 -4.8870888 0.42466646 0
2.7971427 -4.8357167 0.43291804 0
2.8178339 -4.8294463 0.43367937 0
2.9789212 -4.7575808 0.4455511 0
3.018692 -4.7067428 0.44867697 0
3.0654616 -4.6681943 0.45143175 0
3.4926665 -4.5450568 0.47633255 0
3.7544136 -4.4402456 0.49405801 0
4.5085163 -4.1317477 0.41541189 0
8.1223869 -0.52603346 0.49490839 0
7.6274285 -0.19847055 0.49633339 0
-14.567978 1.1132078 0.47865722 0
29.372816 -9.0041447 0.59509486 0
-10.818948 -8.1393805 0.59655923 0
2.6158276 -5.8194728 0.53494877 0
2.4952557 -5.5216627 0.52536929 0
2.3435297 -5.0441666 0.50805247 0
2.4193356 -5.003336 0.5116933 0
2.4847984 -4.9908352 0.51882195 0
2.656472 -4.9304919 0.53057379 0
2.7884767 -4.8640347 0.53659958 0
2.8076248 -4.8695941 0.54180431 0
2.9929032 -4.7975736 0.55426496 0
3.9477799 -4.3678546 0.50630873 0
4.0122976 -4.3497953 0.51096076 0
4.2210331 -4.2687674 0.52381527 0
7.3850913 -2.2955506 0.59863383 0
14.353778 15.634469 0.57471269 0
1.9531893 38.520638 0.50530344 0
2.0387411 38.511986 0.50706071 0
4.6981869 -5.7363963 0.68205041 0
2.4359014 -5.2046309 0.62325233 0
2.4284942 -5.0420895 0.62033021 0
2.8352067 -4.9546723 0.64883214 0
3.1039 -4.8234739 0.67080384 0
3.154604 -4.7705145 0.67427468 0
3.2669132 -4.7194176 0.68403822 0
3.8681829 -4.4748592 0.61770183 0
4.0675979 -4.3708096 0.63639736 0
4.21592 -4.3400092 0.64586091 0
25.217127 -4.3012075 0.69008911 0
4.315661 -4.2596235 0.6563338 0
4.7379198 -4.0991888 0.69181406 0
7.688468 -0.38283902 0.67648154 0
7.6175032 -0.26518652 0.67904526 0
3.8762553 6.0679698 0.60156357 0
24.076584 16.078114 0.62226069 0
24.050976 16.908812 0.63565296 0
23.303158 17.032999 0.63834703 0
25.595974 17.444393 0.64881128 0
14.316629 18.077328 0.6012882 0
23.35018 18.600412 0.65909892 0
22.63158 19.380239 0.66570795 0
22.629402 19.759188 0.67134517 0
3.5481534 -6.2846842 0.74681169 0
3.6054366 -6.2644286 0.74905765 0
3.7343247 -6.2281651 0.75871789 0
2.4237509 -5.0560737 0.72471625 0
3.8033895 -4.9532719 0.73597568 0
3.5287805 -4.6327267 0.7036376 0
3.6140001 -4.6050653 0.71172243 0
3.661603 -4.5823979 0.71873903 0
3.8067925 -4.5249643 0.7293781 0
3.9173491 -4.4993496 0.74286216 0
4.0258083 -4.4626412 0.75176531 0
4.1167674 -4.3952789 0.76155943 0
4.3131661 -4.3212919 0.77884805 0
24.489986 -3.1445615 0.71798807 0
7.3482556 -2.4787073 0.77135503 0
7.9241695 0.016275292 0.70436221 0
8.2534771 0.88025701 0.74894094 0
3.9315462 5.8848543 0.7979604 0
3.9189692 5.9505839 0.79948837 0
2.8904891 -6.0746961 0.81554371 0
2.5449059 -5.053957 0.8428669 0
2.6782713 -5.0295587 0.85711819 0
3.555738 -5.0598607 0.83594584 0
2.7893109 -4.9830027 0.86178523 0
3.0407877 -4.9144888 0.89065826 0
3.1285987 -4.8771787 0.89929867 0
3.6346629 -4.771512 0.83516884 0
4.7827501 -4.1485748 0.82585895 0
4.8511209 -4.1203132 0.83344066 0
4.9251451 -4.1111259 0.84034663 0
5.4055748 -3.9466546 0.891877 0
7.3872347 -0.7506848 0.83335012 0
3.7073193 -6.2275152 0.90329409 0
3.8688054 -6.1666975 0.91475999 0
4.1351509 -6.0061355 0.93797773 0
4.1473961 -5.9992104 0.93856353 0
2.8479621 -5.8094254 0.92652327 0
4.4854927 -5.6335635 0.96209443 0
4.1398029 -5.4217963 0.91346914 0
3.1793044 -4.8241973 0.90277594 0
3.3523352 -4.7591953 0.91951346 0
3.4034295 -4.7426453 0.92637318 0
3.6248624 -4.6709242 0.95442069 0
7.2969718 -2.3584528 0.94992954 0
7.2806044 -2.286644 0.94723541 0
8.3724985 0.75626075 0.95993179 0
7.4424195 -0.7887885 1.0132502 0
-26.391081 47.491276 1.0652103 0
-27.609152 47.861095 1.050817 0
54.265972 -6.3379049 1.177328 0
53.975681 -5.5703983 1.1994739 0
7.344573 -0.74312162 1.188051 0
8.7132788 -0.20915768 1.1524853 0
6.9723935 0.28455281 1.1999463 0
8.372529 0.85625982 1.1758022 0
16.44491 16.105953 1.159269 0
14.243349 16.382282 1.1182485 0
14.043675 16.62974 1.1205925 0
16.013811 17.13294 1.1783704 0
14.161231 18.224905 1.1671587 0
14.284644 18.589718 1.1799699 0
14.152039 18.688948 1.1796852 0
7.9886703 -0.55194032 1.2720331 0
8.0747175 -0.50362438 1.2803332 0
7.9784651 -0.47682768 1.274374 0
6.9721341 0.3207835 1.2011172 0
9.0821152 1.4483775 1.2687229 0
9.1748495 1.4277046 1.2748948 0
8.263792 -14.822433 1.3794422 0
7.2726784 -0.67878962 1.3639807 0
7.2750144 -0.54002422 1.3687147 0
7.225316 -0.49511275 1.3642598 0
7.1506715 -0.2418953 1.3662794 0
8.6883907 -0.17983392 1.3631382 0
7.0749164 -0.029885208 1.3718129 0
6.994205 0.12689757 1.3703713 0
6.9413342 0.23466916 1.3678374 0
6.9068441 0.35269156 1.3709934 0
8.2579851 0.87993789 1.3744481 0
23.753052 16.923471 1.3401661 0
23.06332 17.788349 1.3502206 0
22.886065 18.650864 1.3709853 0
23.187582 19.188656 1.3927064 0
-3.3459833 39.719444 1.3477235 0
-4.1079507 39.827038 1.3334583 0
-4.979888 40.812618 1.340578 0
7.1746912 0.45830551 1.4096707 0
-1.4121182 41.180058 1.4310466 0
7.1531425 -0.30152178 1.5444725 0
7.1012044 -0.15287414 1.5483993 0
7.0600853 -0.058675624 1.5456983 0
7.001318 0.10239804 1.5448287 0
8.2375269 0.88776302 1.5794374 0
-3.2889273 48.044781 1.5743743 0
7.6662107 -14.043891 1.6552089 0
-13.482532 -1.2409813 1.6538414 0
7.0366511 -0.37912852 1.699742 0
6.6631699 0.5310638 1.6971506 0
8.3221207 1.0704033 1.6044452 0
15.699496 15.702837 1.676966 0
14.573532 16.52459 1.6748499 0
13.779643 16.979534 1.6646708 0
14.070758 17.00181 1.6767827 0
13.610177 17.555368 1.6866974 0
8.0534334 -15.202199 1.7527636 0
8.5774498 -15.00635 1.789345 0
8.1949596 -14.550858 1.7304101 0
7.0882368 -0.49172893 1.7019747 0
6.9419808 -0.10480971 1.7019979 0
6.8770599 0.052819613 1.7009019 0
17.401228 16.357288 1.7726145 0
24.204165 -4.979187 1.8015796 0
24.498652 -2.2344592 1.9066426 0
21.813423 16.903885 1.9686106 0
18.567135 -43.551228 2.0832453 0
20.078106 -44.287548 2.1780646 0
8.0275002 -14.849158 2.1034579 0
25.041653 17.439106 2.1177928 0
47.946732 26.269571 2.1190434 0
-4.9625673 38.057152 2.1919746 0
-41.101799 43.862232 2.114949 0
-40.931366 44.280037 2.1334722 0
7.5374651 -13.015986 2.2489228 0
15.748804 15.436008 2.2159462 0
16.301294 15.540506 2.2509775 0
15.412575 15.695553 2.215765 0
16.485823 15.644217 2.2679002 0
16.544725 15.632819 2.2738976 0
15.394756 16.000809 2.2338953 0
14.797848 16.198692 2.216125 0
14.811726 16.469231 2.2339485 0
-6.407414 39.786472 2.251507 0
-5.860528 39.962933 2.2734799 0
-5.4884548 40.033554 2.28371 0
-30.442621 44.894169 2.2043965 0
-29.960115 44.838913 2.2072396 0
7.9681535 -13.767376 2.3658404 0
8.0211725 -13.0434 2.309386 0
8.3670464 -13.026631 2.3484321 0
24.351393 -5.3084993 2.382777 0
48.10601 -2.1954291 2.3327808 0
49.320393 -1.8760643 2.392457 0
-13.643788 -1.2205033 2.3020713 0
15.103168 17.506165 2.3141227 0
13.979791 18.814999 2.3399127 0
2.867718 37.750053 2.3515861 0
7.9857731 -15.084465 2.4923749 0
52.748917 -4.6783519 2.4439299 0
-2.2405024 42.15192 2.4541156 0
-2.7493019 42.239262 2.4500048 0
-2.5529583 42.256157 2.4549131 0
8.414073 -14.689924 2.5055051 0
7.7512774 -12.279956 2.532125 0
7.9970798 -12.250796 2.5642879 0
8.2279539 -12.295318 2.5978036 0
8.3988905 -12.010664 2.5944059 0
10.621908 -11.855664 2.557205 0
8.4188271 -11.521923 2.5513997 0
25.784054 -4.8718104 2.521733 0
25.500828 -4.7150965 2.5019841 0
54.853554 -3.8051023 2.5607657 0
25.713139 -2.1176014 2.5997243 0
25.139797 -1.6989044 2.5634429 0
-0.57175195 43.904724 2.5795758 0
7.5867152 -13.827578 2.679193 0
7.8471179 -13.385496 2.6652551 0
7.8394761 -13.148752 2.6356218 0
10.67739 -12.843321 2.6355801 0
11.194043 -11.41026 2.6142664 0
9.0724726 1.4419686 2.6743383 0
20.852829 17.969849 2.6535532 0
20.530285 18.6656 2.6761568 0
20.400127 18.810678 2.6773767 0
9.5407267 -11.882293 2.7516727 0
24.983648 15.890743 2.7721865 0
23.870035 16.372149 2.7326279 0
24.546291 16.437092 2.7738104 0
21.644583 18.059275 2.7032208 0
20.673233 19.1744 2.7135599 0
20.685003 19.290154 2.7221012 0
7.7143078 -11.951137 2.8062079 0
8.165782 -11.850441 2.8663871 0
15.316354 16.551325 2.8227644 0
24.120375 17.430235 2.8083792 0
14.475011 17.961843 2.8829672 0
24.564606 18.237667 2.8810227 0
24.555435 18.426542 2.8912723 0
13.665542 18.747904 2.8963017 0
7.3637319 -13.327332 2.9315429 0
7.4631882 -13.360663 2.9474747 0
8.8035431 -12.089409 2.9958878 0
8.9338713 -11.462374 2.9463954 0
8.9243088 -11.384054 2.9345922 0
11.257933 -11.354212 2.9834166 0
24.161497 -3.3928835 2.9946022 0
9.0137281 1.6296177 2.9242704 0
59.181652 1.707355 2.9424634 0
17.134014 16.145826 2.916539 0
17.14468 16.479033 2.9460976 0
14.949399 17.844347 2.9053652 0
24.54137 18.782343 2.9111073 0
24.124468 19.105736 2.9064076 0
24.039888 19.320965 2.9107027 0
9.2220287 -11.656446 3.0145795 0
59.771008 2.7068317 3.0032241 0
15.657737 19.131216 3.0567431 0
9.9006128 -11.803263 3.148792 0
10.220312 -11.712293 3.1950629 0
-3.671809 37.780373 3.133944 0
-4.3095522 38.698025 3.1894827 0
7.9316769 -12.732896 3.2722058 0
7.9941516 -12.448009 3.2413187 0
8.2495089 -12.270485 3.2602491 0
10.690261 -11.601717 3.2654803 0
25.939913 -2.6253285 3.2165596 0
14.354498 15.983736 3.250948 0
13.930153 16.113321 3.2250433 0
14.288988 16.229822 3.2662947 0
21.90394 16.440619 3.288131 0
8.1160507 -13.041272 3.3479593 0
8.3054647 -12.500364 3.3014448 0
10.786481 -11.967628 3.3218565 0
11.034949 -11.778247 3.345643 0
11.160108 -11.793305 3.3728023 0
23.06625 15.59828 3.3186817 0
15.202894 15.833629 3.3055985 0
15.258965 15.978165 3.3258684 0
22.269449 16.229603 3.304903 0
23.147173 16.237694 3.3688331 0
15.302334 16.354017 3.3622825 0
21.243055 17.334169 3.3043847 0
8.859705 -12.836083 3.4447782 0
9.3447752 -12.197551 3.4442129 0
23.60438 -4.6925735 3.4619467 0
17.51833 15.634077 3.4858913 0
16.784853 16.175827 3.4750509 0
16.506269 16.290171 3.4621191 0
21.700865 18.375088 3.418818 0
50.050224 25.624516 3.4739749 0
9.3918104 -12.894133 3.5447407 0
7.8217044 -12.764817 3.5985718 0
8.0972862 -12.305705 3.5755119 0
10.330844 -11.750171 3.5763674 0
23.826038 -2.3970797 3.5542529 0
22.031927 19.720688 3.5440097 0
46.456505 30.107546 3.5114565 0
8.8363285 -14.092266 3.61865 0
10.181907 -12.218133 3.6026669 0
9.1251488 -12.213997 3.7587996 0
25.100674 -3.2577052 3.7031615 0
25.341904 -3.0980577 3.7385697 0
25.535164 -2.868248 3.7755547 0
9.0966749 -12.733012 3.8303566 0
9.2577543 -12.314786 3.8024836 0
9.7673979 -11.907754 3.842066 0
9.701561 -11.789667 3.8106751 0
15.407933 15.420135 3.828932 0
20.709951 16.600494 3.8624399 0
18.365803 19.005768 3.8839374 0
-13.582289 -1.2455978 3.9129679 0
16.948692 14.692595 3.9072664 0
16.920975 14.7416 3.9130511 0
-5.5760965 38.370159 4.0827808 0
24.071852 -3.6594584 4.1341987 0
23.452927 16.704954 4.1341867 0
-50.086002 26.393442 4.1284924 0
-3.5041504 38.776619 4.1553025 0
24.581104 -4.0467262 4.2100525 0
24.627897 -3.8218679 4.21912 0
24.47052 -1.9414579 4.2483554 0
24.678213 -1.7158091 4.2903395 0
-0.37792516 39.19556 4.2575216 0
15.689478 19.248827 4.3064179 0
15.17045 19.963568 4.3444209 0
0.56697947 39.554768 4.3137736 0
17.034119 14.68387 4.4842081 0
16.629982 14.978383 4.4737196 0
15.633912 15.413874 4.4090524 0
15.363057 16.239227 4.4861059 0
17.842072 18.969076 4.4816809 0
15.424593 16.976116 4.5929418 0
2.2649701 41.452175 4.5441604 0
23.609381 -3.5891595 4.6382413 0
16.746864 16.190317 4.6453018 0
15.621079 16.956972 4.6118069 0
15.30444 17.175301 4.6057739 0
20.915882 17.893059 4.6789527 0
-1.716015 43.332386 4.6292572 0
-1.9223511 43.593018 4.6516013 0
-1.1026418 43.598801 4.6703877 0
-1.3086658 43.621025 4.666306 0
23.320377 16.162891 4.7711935 0
22.684599 16.35187 4.7180867 0
21.484627 17.779539 4.733058 0
-54.376781 33.665447 4.7423582 0
24.885878 -3.4133258 4.874393 0
22.800798 17.838587 4.8831215 0
25.174313 -2.615767 4.948566 0
16.248943 19.068628 4.9743357 0
15.039847 20.09145 4.9853773 0
-4.4414902 37.997875 4.9985991 0
15.558205 15.95711 5.0378985 0
15.815631 15.915393 5.0674186 0
16.196688 19.49159 5.0248528 0
15.188775 20.622959 5.0783567 0
-4.2064505 38.39204 5.0495491 0
16.401255 15.899838 5.1449094 0
16.38714 20.559134 5.1936026 0
0.25791445 38.523972 5.1493196 0
1.0803576 38.668941 5.1870866 0
-1.9578853 39.022728 5.1624508 0
-4.0156207 39.182018 5.1453266 0
-3.1004727 39.434887 5.1927986 0
-35.742245 48.856735 5.2366114 0
-35.214943 48.830517 5.2209349 0
-34.698296 49.299335 5.2528081 0
-4.0655336 50.337395 5.2659612 0
24.259212 -3.6173797 5.3503847 0
20.850883 17.462276 5.3107405 0
14.812937 18.563169 5.3485241 0
14.048712 16.481592 5.4894743 0
22.007685 17.415285 5.4543891 0
14.692765 16.175785 5.5253706 0
22.499081 17.302794 5.5017667 0
16.218021 18.646778 5.5373602 0
16.00979 17.036623 5.8686466 0
2.3932834 36.553947 5.8703394 0
17.034048 16.628454 5.9498901 0
15.037482 18.462353 5.9764519 0
28.506603 43.402023 5.9282556 0
16.03841 14.66019 6.0380859 0
14.116838 16.633059 6.0904937 0
1.1505926 38.158104 6.0653405 0
1.243462 38.193882 6.0734329 0
24.909594 -3.6423872 6.1026535 0
21.531862 17.699146 6.1276259 0
16.760303 18.073284 6.1541991 0
21.435581 18.242779 6.1859536 0
47.639969 28.817751 6.1702271 0
-0.020804022 39.002148 6.1614723 0
-5.1246443 39.802883 6.1877918 0
14.946289 14.047315 6.2821465 0
16.58386 15.279111 6.2474775 0
14.21651 17.471056 6.2759438 0
22.185474 18.000095 6.2603045 0
21.344387 18.619677 6.2246418 0
21.1777 19.022856 6.2623873 0
48.720543 28.107025 6.2068272 0
15.584356 13.979609 6.3892789 0
15.224922 14.267145 6.3794799 0
16.263309 16.205441 6.3613687 0
13.935244 17.834383 6.3046513 0
14.125531 17.904324 6.3458672 0
13.471259 18.228788 6.3150234 0
13.366476 18.464697 6.3491316 0
15.625967 14.091537 6.4183445 0
24.344822 -3.8480916 6.5747161 0
-0.82172221 35.661564 6.5480919 0
16.11421 18.300377 6.7314525 0
21.928223 17.493816 6.8710899 0
-0.20757468 43.779591 6.8419461 0
17.70969 14.958483 6.9933572 0
14.576608 15.131945 6.9946947 0
14.872342 17.135103 6.9067011 0
22.280844 17.5334 6.9348521 0
21.643595 18.049114 6.9107285 0
13.915635 16.025415 7.0748134 0
22.11138 19.129669 7.1515446 0
-2.3709226 39.425297 7.155128 0
16.28586 17.584438 7.2507458 0
16.634668 14.68546 7.3225093 0
14.728278 19.397366 7.3760123 0
0.35555106 35.273991 7.3948984 0
-0.66395903 35.774609 7.4652801 0
-0.49033219 35.802925 7.4749837 0
2.3268998 41.315601 7.5836387 0
13.501409 16.673523 7.7338023 0
21.968462 18.606255 7.7840419 0
17.276026 16.594707 7.8653932 0
16.755344 16.804693 7.80479 0
-5.2928424 43.816498 7.8584609 0
17.112827 14.305891 7.9425535 0
-4.6961703 44.097149 7.9094744 0
17.072006 14.641875 8.0112076 0
-3.4809477 39.119854 8.0673008 0
16.70697 16.151823 8.2757635 0
-1.9370642 35.476234 8.289216 0
-1.7587211 35.41029 8.2764387 0
14.818231 15.77801 8.3687868 0
13.994924 16.367779 8.346817 0
16.514999 16.613279 8.34447 0
-2.1081522 35.586559 8.313323 0
27.182419 43.526276 8.3478718 0
14.965575 15.787327 8.4073362 0
15.565693 17.78974 8.4361458 0
15.428302 17.983252 8.4584351 0
15.095352 18.031755 8.402319 0
16.731274 17.184904 8.5302448 0
-3.5750897 32.965778 8.5744715 0
-56.537766 40.89867 8.5888424 0
-3.9785461 41.668655 8.5503082 0
14.130157 17.224319 8.6135683 0
-4.5545654 33.186253 8.6284895 0
-4.4721928 33.147442 8.6192904 0
-4.2365489 33.230423 8.6367941 0
-3.7791996 37.164818 8.6334934 0
-5.770505 42.445374 8.6861944 0
15.546857 16.871639 8.8305435 0
14.564706 16.373581 9.0900784 0
14.324634 16.848343 9.1728897 0
15.824174 15.920859 9.2705059 0
14.067666 17.225176 9.222558 0
13.631972 17.740198 9.281971 0
-0.76867658 35.741192 9.2785063 0
-3.7881565 32.659092 9.3517952 0
-0.16396481 36.477867 9.4722958 0
13.91833 18.434687 9.5576591 0
51.225689 32.002903 9.570261 0
-3.391448 33.485119 9.5682011 0
15.178737 15.610202 9.6378765 0
13.917743 16.670261 9.6391678 0
15.611976 15.439595 9.707675 0
-7.1263723 47.753742 9.7000074 0
-6.8076425 34.348454 9.8254833 0
13.934347 17.585033 9.9398861 0
13.872413 17.641212 9.9450464 0
16.751009 15.440132 10.021183 0
15.470525 16.585047 10.016584 0
15.33106 16.938494 10.088336 0
-4.5957913 32.041565 10.042424 0
-6.2290592 39.123661 10.057452 0
-7.3075705 44.375385 10.185499 0
15.343842 15.463083 10.267794 0
-1.6150239 32.996277 10.325532 0
-3.473084 32.325661 10.980834 0
-3.2873018 35.019508 10.902824 0
-3.9655683 32.547104 11.055799 0
-3.3042819 39.929604 11.280572 0
-2.770874 33.449818 11.337254 0
-2.9366856 40.207043 11.356406 0
0.49672005 40.152847 11.403027 0
-7.7568312 45.752151 11.653553 0
-1.5477017 41.674797 11.762846 0
-1.3498772 41.75275 11.789454 0
-3.2264962 37.366444 12.573668 0
-0.91743386 37.902401 12.765613 0
-0.28204897 41.071159 12.700882 0
-6.2520318 32.672058 13.8548 0
-6.4266896 32.752079 13.893111 0
-6.3423376 32.738579 13.884603 0
-5.316617 32.885899 13.906363 0
-4.9405422 33.082733 13.975102 0
-3.5866413 36.068977 14.126333 0
-54.218342 33.60041 -3.0433736 0
-46.172401 31.441601 -2.7301428 0
-33.122768 -3.1459305 -2.247174 0
-14.332127 21.525475 -1.5254623 0
-14.934351 21.796923 -1.5502536 0
-16.480612 22.062721 -1.5870785 0
-20.805202 -23.12396 -1.439442 0
-20.856205 -22.810116 -1.4338561 0
-20.677938 -22.818417 -1.4212379 0
-17.647951 -10.62004 -1.4061391 0
-17.732988 -10.422403 -1.4112356 0
-17.789358 -10.219592 -1.4169378 0
-17.913168 -10.03956 -1.4258852 0
-17.941685 -9.7775192 -1.4238964 0
-18.028561 -9.5845833 -1.4288068 0
-18.083158 -9.3769665 -1.4296651 0
-18.118446 -9.1606302 -1.4310846 0
-18.211893 -8.9707737 -1.4407917 0
-18.251474 -8.667264 -1.4399374 0
-18.288666 -8.4557667 -1.4461662 0
-18.3258 -8.2441225 -1.4473945 0
-18.281429 -8.0148201 -1.4404105 0
-18.325117 -7.8062415 -1.4464353 0
-18.2327 -7.5628562 -1.4356048 0
-18.190231 -7.3383718 -1.4334236 0
-18.152456 -7.1121221 -1.4312174 0
-18.094151 -6.8881001 -1.4242473 0
-18.066381 -6.6741047 -1.4214987 0
-17.979433 -6.4448729 -1.415109 0
-17.975773 -6.238049 -1.4167405 0
-17.932257 -6.0247145 -1.4141712 0
-17.882318 -5.808466 -1.411782 0
-17.847044 -5.6027141 -1.4088444 0
-17.720995 -5.382936 -1.4027084 0
-17.698717 -5.1831522 -1.4043801 0
-12.738163 21.029606 -1.4773651 0
-13.498958 21.173557 -1.4964044 0
-13.139852 21.152021 -1.4905697 0
-18.541632 -22.742502 -1.3154483 0
-16.162697 -11.824617 -1.3043939 0
-16.37446 -11.707658 -1.3200182 0
-17.026239 -11.259699 -1.3647779 0
-17.198677 -11.109442 -1.3770552 0
-17.371132 -10.959197 -1.3893317 0
-17.496647 -10.783802 -1.3981175 0
-17.543877 -4.9578404 -1.3888282 0
-17.354548 -4.7401772 -1.3735592 0
-17.08725 -4.5141377 -1.3497138 0
-16.596058 -4.2753973 -1.3046265 0
-40.119289 8.7232428 -1.3961737 0
-17.862097 10.073482 -1.3452557 0
-16.872221 10.168258 -1.3122798 0
-9.8048468 18.814363 -1.3019837 0
-14.642523 -12.738999 -1.2074426 0
-14.853709 -12.648814 -1.2222215 0
-15.02544 -12.525135 -1.2286599 0
-15.218447 -12.415159 -1.2443454 0
-15.466558 -12.337767 -1.2581542 0
-15.615525 -12.196236 -1.2705166 0
-15.819599 -12.087288 -1.2810035 0
-15.966737 -11.940958 -1.2885437 0
-16.152046 -3.9070761 -1.2679108 0
-16.03161 -3.7864904 -1.2585136 0
-15.870584 -3.6009974 -1.2467778 0
-15.945462 10.366449 -1.286397 0
-15.699129 10.455596 -1.2875464 0
-15.295053 10.582006 -1.2820249 0
-14.562268 10.804505 -1.268957 0
-14.316461 10.878137 -1.2645887 0
-14.121723 10.986638 -1.2655245 0
-13.894743 11.067149 -1.2660803 0
-12.228883 11.177771 -1.2175771 0
-12.580312 11.206959 -1.2335508 0
-12.411357 11.202873 -1.2257794 0
-11.556667 11.252904 -1.2040824 0
-8.1936388 17.818695 -1.2242497 0
-8.4659424 17.988722 -1.2356231 0
-8.9749813 18.310104 -1.2632746 0
-9.4807816 18.582573 -1.2845335 0
-13.002545 -13.239464 -1.1006434 0
-13.194907 -13.156082 -1.1104723 0
-13.60438 -13.012239 -1.1340401 0
-13.40556 -13.092687 -1.1243968 0
-13.913146 -12.912029 -1.157684 0
-14.164346 -12.870927 -1.1752889 0
-14.383735 -12.788278 -1.1896927 0
-14.431546 3.8885105 -1.1345503 0
-13.938726 4.2217541 -1.1268228 0
-13.338112 4.7013397 -1.1200033 0
-13.172286 4.831244 -1.1213187 0
-12.98484 4.9905462 -1.1188151 0
-12.044882 5.6525226 -1.1171635 0
-11.737247 5.8630714 -1.112837 0
-11.421896 6.0228324 -1.1070843 0
-11.270699 6.0997272 -1.1065205 0
-11.094821 6.1569362 -1.100716 0
-11.003952 11.250008 -1.1916051 0
-10.452239 11.215782 -1.1731575 0
-9.1165056 11.258334 -1.1425021 0
-8.9122133 11.278411 -1.140831 0
-7.7222691 11.215895 -1.1098696 0
-7.6713285 17.519127 -1.1973616 0
-12.413278 -22.211994 -1.043874 0
-11.244916 -13.807789 -1.0034533 0
-11.45942 -13.726669 -1.0178794 0
-11.355068 -13.76078 -1.0108192 0
-12.733789 -13.346366 -1.0861826 0
-12.621526 -13.34588 -1.0778713 0
-13.361139 -1.3710278 -1.0642451 0
-13.2308 -1.0676329 -1.0656333 0
-13.269944 -0.88780266 -1.0756313 0
-12.235434 0.42838666 -1.0416809 0
-12.017728 0.79505211 -1.0461519 0
-11.97234 0.86620051 -1.0440003 0
-11.919729 0.96379495 -1.0477648 0
-11.851543 1.0530614 -1.0465026 0
-10.811119 2.2492409 -1.0381271 0
-10.770156 2.2874103 -1.0348754 0
-10.303429 2.8227031 -1.0377699 0
-10.056396 3.055867 -1.0383466 0
-9.8772907 3.1785126 -1.0346079 0
-9.8039217 3.2179008 -1.0318455 0
-9.7405176 3.2663505 -1.0292063 0
-9.602952 3.3563974 -1.0288767 0
-9.4645185 3.470294 -1.0242615 0
-9.3960638 3.4822149 -1.0205991 0
-9.0373735 3.7008302 -1.0122359 0
-8.8768635 3.8170238 -1.0129747 0
-8.4448681 4.1043839 -1.0076107 0
-8.3292313 4.1573992 -1.00581 0
-8.2491674 4.1863666 -1.0027926 0
-8.1382236 4.2411466 -1.0009702 0
-10.349803 6.3544178 -1.0770969 0
-10.200234 6.3840394 -1.0750781 0
-10.087372 6.4008904 -1.06716 0
-9.345047 6.6712914 -1.0554987 0
-9.1665888 6.714365 -1.0492431 0
-9.0696077 6.7316885 -1.0461031 0
-8.8769178 6.777317 -1.0451231 0
-8.3273983 6.9092937 -1.0315887 0
-8.2427444 6.9365802 -1.028551 0
-8.0068808 6.9983764 -1.023595 0
-7.9164095 7.012681 -1.0252534 0
-7.7022514 7.0879221 -1.0203723 0
-7.6099758 7.1070752 -1.0171874 0
-7.4383512 7.1393652 -1.0154616 0
-7.3555217 7.1618714 -1.0172418 0
-7.1190181 7.1968985 -1.0114597 0
-6.8196535 7.2725735 -1.0076889 0
-6.7022786 7.2877817 -1.0047047 0
-5.9230862 10.960914 -1.0560499 0
-5.4796891 10.909039 -1.0452778 0
-7.3080511 11.084203 -1.0865188 0
-7.0792074 11.084663 -1.0845387 0
-6.7008424 11.072462 -1.0791384 0
-7.4805465 11.121282 -1.0953209 0
-25.443893 -22.310553 -0.93151098 0
-9.8462725 -21.131176 -0.91727763 0
-9.2445393 -14.213554 -0.91026348 0
-9.1721849 -14.219612 -0.90614724 0
-9.4028759 -14.153257 -0.91483599 0
-10.865308 -13.903513 -0.98601776 0
-10.778925 -13.914844 -0.98194677 0
-11.169652 -13.820226 -0.99916238 0
-11.046846 -13.847998 -0.99260533 0
-10.935245 -13.877051 -0.99083048 0
-7.1559091 -6.1023817 -0.90827459 0
-8.4649839 -6.0068393 -0.90164661 0
-8.5211439 -5.8034077 -0.90232021 0
-8.5357695 -5.7013702 -0.90035689 0
-8.5586901 -5.6070685 -0.90302896 0
-8.5639772 -5.5085678 -0.90109819 0
-8.598033 -5.4154105 -0.9035579 0
-8.624238 -5.2875881 -0.90224916 0
-8.6342316 -5.187324 -0.90029156 0
-8.6460752 -5.0918894 -0.90315807 0
-8.6693401 -4.9491587 -0.90235245 0
-8.6973763 -4.8048172 -0.90652037 0
-8.70994 -4.6126595 -0.90744054 0
-8.6628551 -4.6998262 -0.90037805 0
-8.7458344 -4.5241981 -0.90971112 0
-8.7594986 -4.4334469 -0.91239119 0
-8.7714052 -4.3380394 -0.91523105 0
-8.7721205 -4.2413421 -0.91327447 0
-8.7969246 -4.1517687 -0.91573274 0
-8.7977343 -4.0552244 -0.9187687 0
-8.7873592 -3.9573803 -0.91700912 0
-8.7945518 -3.8635969 -0.9148556 0
-8.7953882 -3.7670527 -0.91788399 0
-8.8026743 -3.6734221 -0.92072302 0
-10.565536 -3.5180655 -0.94406736 0
-8.7876539 -3.5773387 -0.91897118 0
-10.570091 -3.473624 -0.94539797 0
-8.788518 -3.480794 -0.92199147 0
-8.7846346 -3.3858607 -0.92002988 0
-10.571294 -3.2648952 -0.95193815 0
-10.575747 -3.1777747 -0.9546119 0
-8.7962503 -3.1623285 -0.92687166 0
-7.6533728 -3.1490164 -0.92950976 0
-7.6634269 -2.940115 -0.93422771 0
-7.6559029 -2.8448284 -0.93565273 0
-7.6641879 -2.7489364 -0.93685418 0
-10.512455 -2.6992958 -0.96055955 0
-7.6487846 -2.6209421 -0.93857718 0
-7.6564164 -2.5397191 -0.94349295 0
-7.6442065 -2.4460902 -0.94159049 0
-7.6362004 -2.3493416 -0.94638604 0
-7.6492705 -2.2517912 -0.95088696 0
-7.6180649 -2.143101 -0.95139503 0
-7.5755963 -2.1934879 -0.94046414 0
-7.6053543 -2.081043 -0.95351064 0
-7.589354 -2.0173743 -0.95071959 0
-7.6080604 -1.9677389 -0.95697832 0
-7.6191025 -1.8835658 -0.96441758 0
-7.5680208 -1.8756851 -0.95542437 0
-8.6693573 -1.7079542 -0.95910788 0
-7.5031614 -1.6751587 -0.95258284 0
-8.6375017 -1.5808464 -0.95851433 0
-7.4367781 -1.5555801 -0.95225775 0
-8.6081018 -1.4743632 -0.96224594 0
-7.4401798 -1.4794456 -0.9545536 0
-7.3961191 -1.4049401 -0.95249861 0
-7.3631816 -1.3315954 -0.95024139 0
-10.176056 -1.2122183 -0.97687912 0
-7.3144526 -1.2588394 -0.94819671 0
-10.135507 -1.1044977 -0.9758116 0
-7.2510271 -1.15408 -0.94484991 0
-10.092116 -1.0033588 -0.97958744 0
-7.187614 -1.0493131 -0.94149667 0
-10.037544 -0.90090173 -0.97856182 0
-7.1659017 -0.97726846 -0.94402313 0
-9.956583 -0.7495451 -0.97693115 0
-7.0403023 -0.75656372 -0.93761158 0
-9.8961191 -0.59583193 -0.97506064 0
-8.1400661 -0.53729123 -0.95132035 0
-9.848094 -0.49642822 -0.97883266 0
-9.771842 -0.4072572 -0.97270525 0
-6.9143167 -0.47753444 -0.94295335 0
-6.8541031 -0.43565527 -0.93677443 0
-9.7331982 -0.30433181 -0.97643626 0
-6.8246202 -0.36645997 -0.93763763 0
-9.7220736 -0.26046875 -0.97794431 0
-9.5908422 0.032252517 -0.97885025 0
-7.7334571 0.048608333 -0.94181156 0
-7.6501951 0.14855064 -0.93855792 0
-7.5663552 0.24294591 -0.93514085 0
-7.5255394 0.32113713 -0.9380995 0
-7.4839573 0.37518781 -0.93533796 0
-6.3701239 0.32766977 -0.93766832 0
-7.4302497 0.44505778 -0.93656224 0
-7.3748803 0.53128272 -0.93663234 0
-6.170361 0.5554235 -0.93485808 0
-7.2392335 0.70861167 -0.93893594 0
-6.0065441 0.70850766 -0.92677605 0
-7.1119752 0.83496612 -0.93456638 0
-7.0666223 0.88495463 -0.93171811 0
-5.8645859 0.87477273 -0.92875308 0
-5.8090978 0.92353505 -0.93099391 0
-5.6568494 1.0674824 -0.92742372 0
-5.6011047 1.1241785 -0.9298923 0
-5.450932 1.2555887 -0.92589289 0
-8.6230659 1.3050261 -0.97167462 0
-8.59027 1.335627 -0.96807045 0
-6.5675464 1.3935964 -0.92907637 0
-5.3677225 1.3288705 -0.9267239 0
-8.4587555 1.4734015 -0.96912378 0
-5.2092037 1.4758385 -0.92576784 0
-5.0766082 1.5602703 -0.92509484 0
-8.3002844 1.6119628 -0.96557814 0
-5.0463476 1.6131201 -0.92706507 0
-8.1137714 1.7828732 -0.95839351 0
-6.1439462 1.7437462 -0.92047739 0
-4.7577443 1.7735474 -0.92074466 0
-8.0027533 1.8802829 -0.95790941 0
-4.6175184 1.8500733 -0.91490114 0
-4.5549622 1.8751181 -0.91148949 0
-5.9342799 1.9062562 -0.91822892 0
-5.8771214 1.9597259 -0.92060804 0
-4.3821878 1.9821939 -0.9119699 0
-7.7989459 2.0979486 -0.95733953 0
-5.7392969 2.058187 -0.91793358 0
-4.3313932 2.0115466 -0.91101342 0
-5.5893855 2.1893721 -0.92137706 0
-4.1913948 2.1093469 -0.91325366 0
-4.0691237 2.1232007 -0.90530002 0
-7.5412626 2.2742863 -0.95378107 0
-5.5245581 2.2348475 -0.91860962 0
-5.4551196 2.2784364 -0.92085081 0
-3.8381658 2.2224135 -0.90126359 0
-7.4957032 2.3107255 -0.95301515 0
-7.3857808 2.3767636 -0.94654101 0
-5.3949871 2.3256695 -0.91806358 0
-7.2754025 2.458478 -0.9455362 0
-5.2654681 2.4164445 -0.92000473 0
-5.0675368 2.5193992 -0.91823763 0
-3.1405492 2.5343268 -0.90440691 0
-7.0645795 2.6096339 -0.94300067 0
-6.9775252 2.6573899 -0.94064307 0
-4.7656169 2.6588473 -0.91142637 0
-4.6873136 2.6833794 -0.90820247 0
-4.4899564 2.7707675 -0.90340716 0
-4.3526983 2.8108735 -0.90141523 0
-6.5331693 2.9354022 -0.93508244 0
-5.8019633 3.384619 -0.93338788 0
-5.7280912 3.4187126 -0.93039894 0
-5.6448488 3.4493244 -0.9274351 0
-5.2458181 3.6139655 -0.92017305 0
-5.0147657 3.6701078 -0.91242671 0
-4.9232268 3.7162204 -0.91499776 0
-4.7697206 3.7715616 -0.91366136 0
-4.5740356 3.8114922 -0.90742457 0
-4.3189125 3.8828311 -0.90286529 0
-7.7995415 4.3926935 -0.99518222 0
-7.6826673 4.4348068 -0.98805034 0
-7.5688062 4.483212 -0.98605895 0
-7.4549518 4.5316296 -0.98406339 0
-7.0888171 4.6571374 -0.97782111 0
-6.7117963 4.8267083 -0.97298598 0
-6.4812446 4.9173274 -0.96879172 0
-5.7822356 5.0800486 -0.95301402 0
-5.5848575 5.1244831 -0.94695449 0
-5.290103 5.2021804 -0.94314378 0
-4.982295 5.2432909 -0.93341202 0
-4.7815847 5.2971287 -0.93261188 0
-4.7093463 5.3343835 -0.93463677 0
-4.6060143 5.3549719 -0.93158281 0
-4.513062 5.347414 -0.92757732 0
-4.4097309 5.3680201 -0.92451733 0
-4.1844368 5.4022117 -0.9234255 0
-4.0594459 5.409524 -0.92025501 0
-3.9782958 5.4277053 -0.9168278 0
-3.8417196 5.4520965 -0.91428781 0
-3.7052133 5.4763608 -0.91673893 0
-3.6198997 5.477037 -0.91284919 0
-3.456979 5.4864211 -0.91019541 0
-6.4424229 7.3142338 -0.99894506 0
-6.2653861 7.3181581 -0.99141365 0
-6.1199565 7.3229971 -0.98848456 0
-6.000164 7.3160381 -0.98486912 0
-5.3503909 7.3905001 -0.97056085 0
-5.2220502 7.4069233 -0.972709 0
-4.7133665 7.4165206 -0.9595952 0
-18.423496 11.012337 -0.91490322 0
-9.0620518 -20.725185 -0.87470526 0
-7.6446657 -20.057394 -0.80521375 0
-6.4482799 -14.642675 -0.80829805 0
-6.1959925 -14.680293 -0.80090553 0
-8.6725035 -14.307999 -0.885746 0
-8.491663 -14.323281 -0.87794358 0
-8.3487329 -14.340123 -0.86953211 0
-8.0711861 -14.381557 -0.85734123 0
-8.9594107 -14.263092 -0.89792049 0
-8.8164768 -14.279903 -0.889498 0
-4.9238091 -11.974175 -0.80262125 0
-5.2092643 -11.869817 -0.80665302 0
-5.5877614 -11.729767 -0.81044036 0
-6.067728 -11.561979 -0.82362026 0
-6.8675237 -11.170034 -0.83930105 0
-7.2210693 -10.922366 -0.84696472 0
-7.1694889 -10.968891 -0.84623587 0
-2.6692681 -10.802202 -0.81519222 0
-2.4970076 -10.825948 -0.81213361 0
-2.3501229 -10.818376 -0.8071872 0
-2.2243683 -10.824228 -0.80648565 0
-2.1661572 -10.825397 -0.80737084 0
-3.1427071 -10.715396 -0.81559533 0
-3.0491016 -10.735574 -0.81640178 0
-3.5333655 -10.607277 -0.81802559 0
-3.3617547 -10.646679 -0.81441045 0
-3.2309694 -10.681219 -0.81532735 0
-3.8897717 -10.507206 -0.82076138 0
-3.7438998 -10.558126 -0.81886095 0
-3.6420078 -10.570618 -0.81753224 0
-3.572324 -10.597575 -0.8177343 0
-4.1765966 -10.434325 -0.82871872 0
-4.5501003 -10.309167 -0.83205974 0
-4.3596311 -10.36904 -0.82803053 0
-4.8031788 -10.203766 -0.83662152 0
-4.7102003 -10.239594 -0.83687723 0
-4.6385341 -10.270728 -0.83529311 0
-4.942348 -10.130577 -0.83854276 0
-4.8554134 -10.172935 -0.83682168 0
-5.0314226 -10.089163 -0.83936632 0
-8.2526999 -9.976634 -0.86198848 0
-5.2579141 -9.9699392 -0.84229708 0
-8.3290539 -9.8830795 -0.85886163 0
-5.5654111 -9.825284 -0.85234243 0
-8.4496021 -9.7514515 -0.86130893 0
-5.7493849 -9.7063799 -0.85341865 0
-1.8951172 -9.7091875 -0.83258867 0
-1.7297457 -9.7090816 -0.83022785 0
-1.565057 -9.7247925 -0.82736069 0
-0.90134108 -9.7047205 -0.82866395 0
-0.73962235 -9.714282 -0.83098388 0
-2.4634042 -9.6332741 -0.83605051 0
-2.3651767 -9.6553488 -0.83688813 0
-2.2583344 -9.6618614 -0.83335888 0
-1.6377934 -9.6639538 -0.81814629 0
-5.9656405 -9.5322752 -0.85576439 0
-5.8943906 -9.5971365 -0.85474604 0
-2.922899 -9.5517635 -0.84149051 0
0.13968366 -9.5216064 -0.82168895 0
-6.1174479 -9.4338589 -0.85663867 0
-3.3714786 -9.4695816 -0.85219294 0
-6.2424774 -9.3351154 -0.86043543 0
-6.1724415 -9.375267 -0.85769743 0
-3.6737692 -9.3255882 -0.84717685 0
-3.5983367 -9.3654842 -0.84705228 0
0.28112778 -9.3889894 -0.80833471 0
0.46137571 -9.3363304 -0.80807757 0
-6.345634 -9.241971 -0.8610487 0
-6.2847161 -9.2920446 -0.8586843 0
0.77827442 -9.21947 -0.80724758 0
0.89789206 -9.1859303 -0.80538553 0
1.0530457 -9.1291656 -0.8099007 0
-4.5468011 -9.00002 -0.86938447 0
-4.4659243 -9.0256777 -0.86477554 0
1.1976795 -9.030323 -0.80060893 0
-4.7283592 -8.9167356 -0.87182188 0
-4.5639272 -8.9610739 -0.86537743 0
1.3575258 -8.9754076 -0.80518466 0
-4.8004298 -8.8540354 -0.87025398 0
1.6312691 -8.8044357 -0.80055988 0
-4.9695649 -8.7730885 -0.87782353 0
1.763232 -8.7387314 -0.80504376 0
1.8942112 -8.661767 -0.80489016 0
-7.230413 -8.3302841 -0.8754673 0
2.2485232 -8.378458 -0.80053616 0
-7.2834802 -8.2455673 -0.87240016 0
-5.6198807 -8.2685966 -0.88672829 0
2.4543815 -8.2457018 -0.80364776 0
-7.3366351 -8.1610088 -0.87432885 0
2.5885146 -8.1328497 -0.80482614 0
-7.396245 -8.0793571 -0.87606257 0
2.6613064 -8.0545816 -0.80375063 0
-7.4619346 -7.9577103 -0.87399858 0
-6.0326114 -7.9309464 -0.89637738 0
2.7731431 -7.9651117 -0.8062793 0
2.8036623 -7.9343562 -0.80536306 0
-7.5168862 -7.877841 -0.87575066 0
-6.1154289 -7.8402786 -0.89804596 0
-6.045197 -7.8939729 -0.89737773 0
-7.621418 -7.7039437 -0.87477434 0
-7.5699925 -7.793149 -0.87267846 0
-6.1544771 -7.7608252 -0.89501697 0
2.9760799 -7.7777739 -0.80376858 0
-7.6717157 -7.6258602 -0.87654358 0
-6.2164998 -7.6995711 -0.89605337 0
-9.7700462 -7.5573611 -0.88728875 0
-7.7249236 -7.5413365 -0.87846559 0
-6.3090386 -7.5784063 -0.89856637 0
3.159744 -7.5779924 -0.80887598 0
-7.7651701 -7.4508591 -0.87577343 0
3.2571754 -7.4775677 -0.80907327 0
3.3078687 -7.4013844 -0.80758327 0
-7.8183932 -7.3663435 -0.8776933 0
3.3649607 -7.322464 -0.80631584 0
-7.8587341 -7.2760286 -0.87999541 0
3.4516873 -7.2499752 -0.81040543 0
-7.9540176 -7.1057329 -0.87904352 0
-7.899004 -7.1855621 -0.87729889 0
3.5038273 -7.1423106 -0.80502439 0
-8.0055027 -7.0165615 -0.8811304 0
3.5783815 -7.0597806 -0.8092407 0
-8.0670538 -6.9397984 -0.88767892 0
-8.0962334 -6.8482146 -0.88518834 0
-8.1470461 -6.743248 -0.88780051 0
-8.2447176 -6.5509067 -0.89251083 0
-8.2933416 -6.468204 -0.89443827 0
-8.3337603 -6.3779268 -0.89672643 0
-8.3612204 -6.2816877 -0.8943972 0
-8.4309769 -6.1000109 -0.89917523 0
-8.3969793 -6.1931853 -0.89670134 0
4.1294985 -6.0884533 -0.81313038 0
-8.4902468 -5.9328585 -0.89863318 0
4.1695619 -5.9709363 -0.8079803 0
-8.4917965 -5.8948059 -0.8998338 0
4.208859 -5.8692527 -0.80728018 0
4.2199268 -5.7990561 -0.80493617 0
-8.6012897 -5.3818831 -0.89958519 0
4.4773011 -4.8577352 -0.80312949 0
4.5484748 -4.5776567 -0.80954355 0
4.5478826 -4.4550462 -0.80390823 0
4.5689783 -4.3731413 -0.80727744 0
4.5699329 -4.2672606 -0.80609548 0
4.6027021 -4.1898851 -0.8095504 0
4.5774255 -4.0895281 -0.80264658 0
4.583334 -3.7575765 -0.80480176 0
4.5645742 -3.5855966 -0.80067277 0
4.5533409 -3.1196039 -0.8025195 0
4.5355797 -3.0278106 -0.80055207 0
4.5308342 -2.9438324 -0.8035568 0
4.5016894 -2.6754053 -0.80792332 0
4.447041 -2.4313459 -0.80590552 0
4.4210286 -2.3403003 -0.80378103 0
4.4141803 -2.2824497 -0.80580705 0
4.3525906 -2.1453846 -0.80220449 0
4.3455195 -2.0471339 -0.8032493 0
4.3337965 -1.9949616 -0.80498642 0
4.2120261 -1.7038641 -0.80351651 0
4.1747742 -1.5938684 -0.80192262 0
4.0249915 -1.2651546 -0.80132836 0
3.8233528 -0.87471688 -0.80092067 0
3.7310469 -0.69892126 -0.80020773 0
3.5702739 -0.43733722 -0.80110365 0
3.3732686 -0.17231113 -0.80137026 0
-3.6398547 2.2910373 -0.89587575 0
-3.2997127 2.4487901 -0.89988244 0
-3.0790234 2.5280318 -0.89501458 0
-2.9948545 2.5399246 -0.8914386 0
-2.8593807 2.5757012 -0.88919884 0
-2.7128816 2.6126313 -0.89212728 0
-2.4549482 2.6200333 -0.87559354 0
-4.4361229 2.7723589 -0.89917624 0
-4.080575 2.9135716 -0.89301664 0
-3.924108 2.9626794 -0.89150548 0
-3.8278794 3.0071926 -0.89406115 0
-3.6544993 3.0662098 -0.89053237 0
-3.49229 3.1238632 -0.89180756 0
-3.360301 3.150089 -0.88926947 0
-3.0339441 3.2276917 -0.88569355 0
-2.8382978 3.2681313 -0.87934339 0
-4.2470765 3.9044423 -0.89943695 0
-4.018929 3.9750051 -0.89946455 0
-3.6471226 4.0675449 -0.89445376 0
-3.506393 4.0959072 -0.88958436 0
-3.2541771 4.1311321 -0.88883543 0
-3.0586517 4.1713009 -0.88747984 0
-5.3059549 -18.861717 -0.70452905 0
-5.2176466 -18.825922 -0.70204186 0
-5.657969 -14.709654 -0.78812391 0
-4.8506789 -14.746111 -0.76929057 0
-4.670083 -14.761936 -0.76655698 0
-4.4869475 -14.757162 -0.75952625 0
-4.3317943 -14.741817 -0.75741231 0
-6.0199928 -14.694185 -0.79812884 0
-3.8090966 -14.685637 -0.74731696 0
-3.6585224 -14.668406 -0.74020875 0
-3.3039618 -14.633591 -0.73685908 0
-3.0418973 -14.589712 -0.72736585 0
-2.6601896 -14.511819 -0.72087669 0
-2.5779564 -14.505962 -0.7173571 0
-2.5172431 -14.486607 -0.71894342 0
-1.855423 -14.415436 -0.71170622 0
-1.7178121 -14.404295 -0.70924425 0
-1.3662863 -14.363666 -0.71114045 0
-1.233343 -14.35078 -0.7086733 0
-1.0961403 -14.312784 -0.70709348 0
-0.83073968 -14.260319 -0.70804346 0
-0.67318815 -14.224922 -0.70672113 0
-0.54133224 -14.200974 -0.70462209 0
-0.40955922 -14.177194 -0.70752615 0
-0.27957377 -14.158094 -0.71025324 0
-0.15200107 -14.08953 -0.70453513 0
-0.021630498 -14.027594 -0.70366186 0
0.10050379 -13.973209 -0.70240766 0
0.22731155 -13.920626 -0.70118397 0
0.6026988 -13.804008 -0.70113462 0
-2.3203459 -12.313408 -0.76702559 0
-2.2537246 -12.320483 -0.76785231 0
-2.1551306 -12.334604 -0.76896 0
-2.0396891 -12.325613 -0.76608241 0
-1.8189161 -12.320039 -0.7647714 0
-1.7460479 -12.310805 -0.76623315 0
-4.0387125 -12.204952 -0.79122984 0
-3.4566784 -12.265737 -0.7807641 0
-3.2458103 -12.272088 -0.77883768 0
-2.8065219 -12.280807 -0.77041781 0
-2.6936297 -12.292377 -0.77181894 0
-1.392345 -12.292453 -0.76243782 0
-0.864088 -12.277986 -0.76637638 0
-4.7864447 -12.00548 -0.79870009 0
-4.6480565 -12.048077 -0.7994464 0
-4.4856701 -12.083697 -0.79578131 0
0.52207488 -11.750177 -0.74109149 0
0.74699271 -11.650377 -0.74057209 0
0.87379968 -11.597922 -0.73689324 0
1.1312224 -11.510957 -0.73905361 0
1.2450504 -11.464483 -0.74248904 0
1.3936369 -11.38308 -0.73765028 0
1.4689332 -11.353668 -0.73988962 0
1.5614185 -11.293341 -0.73842871 0
1.7381564 -11.180243 -0.73513013 0
1.9468658 -11.039488 -0.7308048 0
-1.7292401 -10.812469 -0.79972667 0
2.1497602 -10.886024 -0.73182452 0
2.2900832 -10.812437 -0.73167288 0
-1.5188725 -10.792312 -0.7987321 0
-1.427395 -10.790226 -0.79525101 0
-1.3305622 -10.774147 -0.7923153 0
-1.1766139 -10.748178 -0.79061955 0
-1.0852226 -10.746282 -0.79214764 0
-0.99382889 -10.744392 -0.79367959 0
-0.88308179 -10.733794 -0.79080576 0
-0.70029432 -10.730059 -0.79388773 0
-0.61036956 -10.75994 -0.79938817 0
-0.51782471 -10.699284 -0.79284716 0
-0.42643094 -10.697444 -0.79440016 0
-0.3371366 -10.673205 -0.7916401 0
-0.24504635 -10.655592 -0.79372305 0
-0.15217537 -10.622038 -0.79133505 0
2.4529021 -10.694077 -0.7283861 0
-0.066849202 -10.580245 -0.78908604 0
0.020354027 -10.533634 -0.78202713 0
2.6145701 -10.564786 -0.73046196 0
0.15034267 -10.479757 -0.77842045 0
0.29594618 -10.426855 -0.78005332 0
2.7223513 -10.478593 -0.73018497 0
0.46305782 -10.352683 -0.77524096 0
2.8365982 -10.389548 -0.730129 0
0.69338179 -10.238884 -0.76779264 0
0.77974325 -10.208446 -0.77024347 0
0.91290909 -10.153358 -0.76928878 0
1.2585934 -10.010201 -0.76984191 0
1.3519282 -9.9825506 -0.77235115 0
1.5050274 -9.9033384 -0.77257043 0
3.2967415 -9.997448 -0.72624093 0
3.4973712 -9.8087292 -0.72609562 0
1.7770725 -9.7367315 -0.76772785 0
1.8395165 -9.7131014 -0.76959282 0
1.9840363 -9.6145964 -0.77034622 0
2.1182499 -9.5012398 -0.76641512 0
3.744365 -9.5689087 -0.72853357 0
3.8000178 -9.5213604 -0.73113209 0
3.8453631 -9.45893 -0.72903299 0
2.2756286 -9.3971558 -0.76761341 0
2.3716409 -9.3278103 -0.76659405 0
3.926347 -9.3732662 -0.73337096 0
2.5114126 -9.2140446 -0.76282358 0
2.7013807 -9.0668526 -0.76608306 0
4.1780162 -9.0659819 -0.73326087 0
2.9162054 -8.9107456 -0.77012771 0
4.2669759 -8.945838 -0.72892755 0
4.3851418 -8.8053522 -0.73084104 0
3.0393159 -8.7987852 -0.77107358 0
3.1278632 -8.7212763 -0.77026027 0
4.4215355 -8.7663107 -0.73283416 0
3.2695868 -8.6166601 -0.77133745 0
3.402631 -8.492856 -0.77791512 0
3.5164826 -8.3773813 -0.77887565 0
-10.726388 -8.2763939 -0.74472344 0
3.6054049 -8.2573042 -0.77453631 0
3.8305831 -7.9775319 -0.77813166 0
3.9216113 -7.8451548 -0.7767992 0
4.022963 -7.7276864 -0.78018266 0
3.6783366 -6.5225463 -0.77438235 0
54.340324 -5.5607882 -0.73372805 0
5.1126161 -5.1143184 -0.78676975 0
6.01897 -5.1838555 -0.77749109 0
5.150187 -4.8241773 -0.78616875 0
5.1625905 -4.6818771 -0.78316528 0
6.0562849 -4.6187162 -0.77842897 0
5.1658916 -4.5768132 -0.7819851 0
6.0520997 -4.5054245 -0.77741861 0
5.180563 -4.4976573 -0.78512609 0
7.3284588 -4.4519143 -0.78010839 0
6.0572891 -4.3267202 -0.77895856 0
7.334661 -4.3533216 -0.78378761 0
7.3240995 -4.2427974 -0.78257555 0
5.2144666 -4.1072435 -0.78987223 0
7.2902498 -4.1232109 -0.78121823 0
5.2192373 -4.0399523 -0.78740406 0
5.2145958 -3.9692054 -0.78987414 0
7.2522087 -3.9594026 -0.77888846 0
5.2229948 -3.8581996 -0.78906536 0
6.0639739 -3.8827901 -0.78015953 0
5.2152715 -3.71977 -0.78894013 0
6.0667934 -3.7379382 -0.78549254 0
7.1523995 -3.7340858 -0.76755482 0
5.1996799 -3.5809464 -0.78868264 0
6.0421453 -3.553683 -0.78170353 0
4.5668774 -3.4696898 -0.79994863 0
5.1837773 -3.4154778 -0.78940517 0
6.0359106 -3.4733982 -0.78450799 0
4.537271 -3.3256228 -0.79963291 0
5.1834431 -3.3888345 -0.79037488 0
5.9615731 -3.2105222 -0.77763671 0
6.9988828 -3.2754414 -0.76120752 0
5.1391392 -3.1589742 -0.78290886 0
5.9479523 -3.1493182 -0.77460736 0
5.1171756 -3.0229793 -0.78246546 0
5.9330759 -3.0294631 -0.77872097 0
5.9175119 -2.9595277 -0.77597666 0
5.8939013 -2.8758805 -0.77358091 0
6.8422232 -2.8528018 -0.75357091 0
5.8677764 -2.7437284 -0.77794331 0
5.065577 -2.6473694 -0.78532654 0
6.769804 -2.6677084 -0.74894214 0
5.0639267 -2.5487032 -0.79145986 0
5.822629 -2.5506966 -0.77417457 0
5.0390687 -2.4409115 -0.79247272 0
5.0210214 -2.3683245 -0.78981042 0
5.772984 -2.3349411 -0.77619547 0
6.646894 -2.3513198 -0.74317372 0
5.0021763 -2.2885826 -0.79240984 0
5.7618852 -2.2536695 -0.77899677 0
4.9421043 -2.1271119 -0.78723311 0
4.8933821 -1.9914337 -0.78633559 0
5.6673884 -1.9062324 -0.78007215 0
5.7033243 -1.9787357 -0.78309357 0
6.5021605 -1.9813601 -0.73901784 0
4.8335547 -1.8567621 -0.78518307 0
5.6414399 -1.8218898 -0.78271019 0
4.7887716 -1.7385315 -0.78373528 0
4.8079748 -1.798978 -0.78184438 0
4.7396235 -1.6451271 -0.78126633 0
6.3670435 -1.6419203 -0.73899567 0
6.3310318 -1.5696123 -0.74099165 0
4.6435733 -1.4116433 -0.78316402 0
6.2738929 -1.4144903 -0.74065906 0
6.3034182 -1.4896365 -0.73842633 0
4.6247683 -1.3776618 -0.77906954 0
5.374321 -1.3409672 -0.77043939 0
6.2340188 -1.3247144 -0.74323463 0
-13.262763 -1.2262737 -0.76004183 0
4.5182538 -1.102509 -0.78225958 0
5.2625961 -1.1065052 -0.7720558 0
5.3021965 -1.1695631 -0.77046442 0
6.1651435 -1.1517839 -0.74336058 0
3.8868046 -1.0282815 -0.79681605 0
5.2407112 -1.0394218 -0.76915175 0
-13.259114 -0.96118516 -0.77333194 0
5.2169099 -0.97716767 -0.77104419 0
3.8141437 -0.87089813 -0.79586041 0
5.1722875 -0.84432685 -0.77489787 0
5.1342192 -0.74600083 -0.77757901 0
5.9852333 -0.70184219 -0.7467289 0
4.2619305 -0.652915 -0.77780223 0
5.1354117 -0.67761678 -0.78502119 0
3.6320868 -0.56075627 -0.79802895 0
4.1749072 -0.51158893 -0.78098655 0
4.9775558 -0.48655048 -0.77514863 0
4.0558443 -0.34935942 -0.77673835 0
5.8431215 -0.35121414 -0.75615805 0
3.9638166 -0.21401447 -0.77710575 0
4.7871175 -0.250626 -0.76785195 0
3.9114604 -0.15576884 -0.77307224 0
4.6882668 -0.1259152 -0.76520061 0
4.7009273 -0.14159568 -0.76490957 0
5.7476501 -0.13312499 -0.75854015 0
3.8306222 -0.032955144 -0.77573138 0
5.6938391 -0.019021876 -0.75978386 0
5.6306071 0.10763448 -0.76294339 0
5.5505686 0.24622859 -0.76617599 0
4.3593764 0.33038738 -0.76448059 0
5.415556 0.42263418 -0.76459968 0
5.2683921 0.60915703 -0.7631287 0
5.1911917 0.74127704 -0.7661916 0
5.1348748 0.81694859 -0.76769519 0
6.3263745 0.91143095 -0.73566782 0
6.2631431 1.0380869 -0.73882735 0
6.1779723 1.1359894 -0.73551339 0
7.8520689 1.2837679 -0.70035392 0
6.0043654 1.3648248 -0.73999184 0
7.700541 1.6378627 -0.71471459 0
7.6065326 1.7819206 -0.71785051 0
7.5868297 1.8138754 -0.71606785 0
7.5061536 1.923323 -0.71575654 0
10.723351 -48.161873 -0.63066441 0
-5.1264515 -18.796583 -0.6993987 0
-4.0109735 -18.668158 -0.68584198 0
-3.6885071 -18.57778 -0.67878997 0
-3.5687563 -18.543474 -0.67677039 0
-3.1755195 -18.421413 -0.66687012 0
-2.9507771 -18.363449 -0.66727144 0
-2.7566917 -18.288116 -0.66275913 0
-1.6837972 -17.838839 -0.63915491 0
-1.1171601 -17.500296 -0.62907356 0
-0.7801854 -17.330296 -0.61993808 0
0.35163778 -13.888507 -0.69926047 0
0.47954649 -13.847065 -0.69770879 0
0.84631741 -13.71114 -0.69817084 0
1.3127558 -13.426353 -0.69016558 0
1.4245136 -13.357376 -0.68927389 0
1.7704997 -13.157446 -0.68909514 0
2.2911646 -12.891872 -0.68910146 0
2.7152922 -12.634612 -0.69479424 0
2.9663646 -12.480986 -0.69417077 0
3.1667233 -12.334348 -0.69246131 0
3.360554 -12.190779 -0.69556123 0
3.5452962 -12.057055 -0.69819862 0
3.7600782 -11.886853 -0.69758493 0
3.8949399 -11.688185 -0.69650358 0
4.1066532 -11.358864 -0.68611443 0
4.1362233 -11.225933 -0.68101549 0
4.2407694 -10.967177 -0.67142302 0
4.3282208 -10.808843 -0.66823566 0
4.41784 -10.672763 -0.66436422 0
4.5596027 -10.498372 -0.6627335 0
4.7145715 -10.345356 -0.66566527 0
4.8581066 -10.236097 -0.67195702 0
4.9405727 -10.188421 -0.67757851 0
5.2680883 -10.018013 -0.69688511 0
6.197403 -3.4607468 -0.6431219 0
6.2084332 -3.4598913 -0.64837617 0
7.318778 -3.1322174 -0.61780214 0
7.223031 -3.0204003 -0.60997289 0
7.2052917 -2.9285054 -0.61299396 0
7.1819391 -2.8236418 -0.61138946 0
7.0447884 -2.4885902 -0.61099887 0
6.8603272 -1.959674 -0.61192399 0
6.8333445 -1.8642653 -0.61495262 0
6.7566261 -1.7863961 -0.60630697 0
